0.513149,-0.160695,0.0474791,0
0.511098,-0.162652,0.0473256,0
0.510334,-0.165014,0.0472841,0
0.512113,-0.168219,0.0474636,0
0.507903,-0.169427,0.0471235,0
0.508276,-0.172166,0.0471816,0
0.507473,-0.174505,0.0471379,0
0.507153,-0.177012,0.0471367,0
0.50633,-0.17934,0.0470919,0
0.505747,-0.181752,0.0470683,0
0.506615,-0.184698,0.0471715,0
0.507447,-0.187645,0.0472721,0
0.508339,-0.190629,0.0473784,0
0.507793,-0.193076,0.0473596,0
0.506955,-0.195409,0.0473155,0
0.504915,-0.197266,0.0471666,0
0.504485,-0.19975,0.0471588,0
0.504073,-0.202241,0.0471528,0
0.503842,-0.204809,0.047163,0
0.503919,-0.207508,0.0472006,0
0.503329,-0.209934,0.0471799,0
0.502374,-0.212203,0.0471275,0
0.503137,-0.215209,0.0472263,0
0.502076,-0.217433,0.0471651,0
0.501092,-0.219687,0.047111,0
0.501349,-0.222489,0.0471662,0
0.502086,-0.225517,0.0472642,0
0.503967,-0.229083,0.0474635,0
0.504878,-0.232226,0.0475777,0
0.503838,-0.234472,0.0475201,0
0.50279,-0.23671,0.047462,0
0.50452,-0.240272,0.0476498,0
0.504892,-0.243202,0.0477179,0
0.504008,-0.245528,0.047675,0
0.50372,-0.248145,0.0476852,0
0.507817,-0.252959,0.0480848,0
0.507695,-0.255691,0.0481107,0
0.507425,-0.258352,0.0481235,0
0.508538,-0.261732,0.0482597,0
0.507392,-0.263951,0.0481953,0
0.507327,-0.266735,0.0482272,0
0.508834,-0.270362,0.0483996,0
0.508103,-0.272808,0.0483729,0
0.506919,-0.275006,0.0483058,0
0.503538,-0.27599,0.0480424,0
0.511945,0.301361,0.0478777,0
0.513791,0.299474,0.0479868,0
0.515049,0.297242,0.0480444,0
0.515868,0.29476,0.0480638,0
0.515047,0.29137,0.0479402,0
0.513579,0.287644,0.0477606,0
0.5118,0.283773,0.0475546,0
0.512242,0.281117,0.0475423,0
0.510927,0.277534,0.0473776,0
0.510225,0.274293,0.0472668,0
0.510139,0.271387,0.0472097,0
0.509231,0.268066,0.0470817,0
0.50871,0.26496,0.0469877,0
0.509623,0.262585,0.047018,0
0.508508,0.259201,0.0468734,0
0.509321,0.256782,0.0468955,0
0.509084,0.253852,0.0468274,0
0.510706,0.251822,0.0469195,0
0.511795,0.24953,0.046966,0
0.510483,0.246106,0.0468065,0
0.509798,0.242994,0.0467013,0
0.510154,0.240373,0.0466857,0
0.511201,0.238067,0.0467294,0
0.512609,0.235918,0.0468043,0
0.510854,0.232363,0.0466092,0
0.51146,0.229864,0.0466161,0
0.51199,0.227332,0.0466168,0
0.513033,0.225019,0.0466613,0
0.513908,0.222631,0.0466918,0
0.512315,0.219215,0.046513,0
0.512532,0.216564,0.0464882,0
0.512184,0.213689,0.0464159,0
0.511849,0.210829,0.0463452,0
0.512651,0.208426,0.0463711,0
0.513541,0.206056,0.0464048,0
0.51395,0.203497,0.0463979,0
0.516318,0.201682,0.0465567,0
0.514301,0.198211,0.0463459,0
0.514565,0.195607,0.0463279,0
0.512326,0.192097,0.0460997,0
0.50716,0.187569,0.0456261,0
0.506601,0.184724,0.0455406,0
0.471725,0.169966,0.0425761,0
0.42151,0.15032,0.0383312,0
0.364943,0.129052,0.0335618,0
0.311853,0.109523,0.029092,0
0.28717,0.0998279,0.0270053,0
0.278655,0.095593,0.0262733,0
0.27682,0.0935641,0.0261002,0
0.276198,0.0919351,0.0260289,0
0.272968,0.0895151,0.0257405,0
0.273113,0.0881486,0.0257338,0
0.272457,0.0865458,0.0256607,0
0.267979,0.0838378,0.0252701,0
0.271477,0.0834627,0.0255429,0
0.271842,0.0821733,0.0255554,0
0.272201,0.0808812,0.0255677,0
0.267384,0.0781827,0.0251511,0
0.269096,0.0772747,0.025276,0
0.273518,0.0770607,0.0256253,0
0.276473,0.0764288,0.0258529,0
0.27408,0.0744244,0.0256385,0
0.274405,0.0731165,0.025649,0
0.274433,0.0717359,0.0256352,0
0.27511,0.070511,0.0256752,0
0.274283,0.0689329,0.0255913,0
0.273847,0.0674539,0.0255401,0
0.274889,0.0663095,0.0256107,0
0.277115,0.0654138,0.0257789,0
0.279521,0.0645365,0.0259618,0
0.294273,0.0661965,0.027159,0
0.3092,0.0677499,0.0283694,0
0.353761,0.0750121,0.0320101,0
0.493148,0.100107,0.0434228,0
0.513563,0.10151,0.045072,0
0.518081,0.0998115,0.0454176,0
0.518525,0.0973466,0.0454296,0
0.518957,0.0948788,0.0454412,0
0.516975,0.0920034,0.0452557,0
0.516923,0.0894659,0.0452286,0
0.517628,0.0870521,0.0452639,0
0.517703,0.0845376,0.0452481,0
0.51735,0.0819612,0.0451978,0
0.516732,0.079353,0.0451264,0
0.517041,0.0768825,0.045131,0
0.517078,0.0743753,0.0451141,0
0.517359,0.0719017,0.0451173,0
0.51701,0.0693492,0.0450698,0
0.517756,0.0669341,0.0451118,0
0.517788,0.0644317,0.0450962,0
0.517373,0.0618819,0.0450448,0
0.515856,0.0592213,0.0449042,0
0.516111,0.0567565,0.0449081,0
0.51577,0.0542338,0.0448642,0
0.518177,0.0519679,0.0450438,0
0.51719,0.0493863,0.0449483,0
0.517659,0.0469352,0.0449715,0
0.517856,0.0444603,0.044973,0
0.515962,0.0418333,0.0448054,0
0.514323,0.0392432,0.0446592,0
0.513876,0.0367451,0.04461,0
0.511748,0.0341545,0.0444252,0
0.508338,0.0315168,0.0441372,0
0.430039,0.0252563,0.0377876,0
0.327734,0.0186807,0.029499,0
0.282201,0.0153087,0.0258083,0
0.274934,0.0136928,0.0252148,0
0.273235,0.0123126,0.0250722,0
0.269416,0.0108954,0.0247585,0
0.268031,0.0095645,0.024642,0
0.264935,0.0082201,0.0243874,0
0.262844,0.00691626,0.0242144,0
0.259718,0.00562592,0.0239581,0
0.259083,0.00436904,0.0239033,0
0.259082,0.00311623,0.0239,0
0.25776,0.00187399,0.0237903,0
0.258107,0.00062312,0.0238155,0
0.258101,-0.000624909,0.0238125,0
0.257095,-0.00185082,0.023729,0
0.256766,-0.00308551,0.0237005,0
0.256346,-0.00431434,0.0236648,0
0.255419,-0.00552102,0.0235885,0
0.253645,-0.00668438,0.023444,0
0.253995,-0.00792844,0.0234712,0
0.253937,-0.00915549,0.0234656,0
0.253872,-0.010382,0.0234599,0
0.252137,-0.0115081,0.0233195,0
0.252061,-0.0127257,0.0233133,0
0.250693,-0.0138532,0.023203,0
0.250001,-0.0150184,0.0231475,0
0.254887,-0.0166178,0.0235422,0
0.257903,-0.0181078,0.0237864,0
0.277378,-0.0210823,0.0253591,0
0.305623,-0.0250596,0.02764,0
0.450843,-0.0407606,0.0393625,0
0.575242,-0.0557058,0.0494065,0
0.581527,-0.0591467,0.0499182,0
0.543868,-0.0577189,0.0468829,0
0.519097,-0.0574418,0.044888,0
0.516238,-0.0595976,0.0446624,0
0.515935,-0.0620514,0.0446437,0
0.517346,-0.0647295,0.0447639,0
0.519637,-0.0675429,0.0449556,0
0.519297,-0.0700098,0.0449353,0
0.51635,-0.0720962,0.0447048,0
0.515746,-0.074509,0.044664,0
0.515374,-0.0769545,0.0446424,0
0.515994,-0.0795577,0.0447014,0
0.516426,-0.0821385,0.0447458,0
0.518417,-0.0849907,0.0449167,0
0.517416,-0.0873426,0.044846,0
0.515632,-0.0895474,0.0447123,0
0.515053,-0.0919598,0.0446766,0
0.512834,-0.0940596,0.0445084,0
0.514138,-0.0968239,0.044626,0
0.51618,-0.0997504,0.0448039,0
0.515799,-0.102207,0.0447859,0
0.513161,-0.104193,0.0445854,0
0.512654,-0.106611,0.044558,0
0.514874,-0.109622,0.0447522,0
0.514342,-0.112044,0.0447236,0
0.513799,-0.114463,0.0446946,0
0.514642,-0.117202,0.0447784,0
0.513781,-0.119549,0.0447244,0
0.513205,-0.121959,0.0446938,0
0.512618,-0.124366,0.0446627,0
0.515634,-0.12768,0.0449252,0
0.514095,-0.129856,0.0448175,0
0.512305,-0.131954,0.0446897,0
0.511377,-0.13427,0.0446324,0
0.512065,-0.13702,0.0447072,0
0.511876,-0.139538,0.0447109,0
0.51239,-0.142257,0.0447723,0
0.511714,-0.144644,0.044737,0
0.511027,-0.147025,0.0447013,0
0.512589,-0.150072,0.0448495,0
0.512624,-0.152679,0.0448735,0
0.511902,-0.155058,0.044836,0
0.511274,-0.157463,0.0448065,0
0.512051,-0.160312,0.0448923,0
0.511296,-0.162682,0.0448532,0
0.509753,-0.164789,0.0447497,0
0.508142,-0.166865,0.044641,0
0.507361,-0.169208,0.0446006,0
0.509174,-0.172437,0.0447733,0
0.508164,-0.174709,0.0447149,0
0.507541,-0.177112,0.0446884,0
0.506318,-0.179299,0.0446129,0
0.505884,-0.181765,0.0446026,0
0.506811,-0.184733,0.0447047,0
0.509406,-0.188338,0.0449446,0
0.508536,-0.190665,0.0448994,0
0.507656,-0.192984,0.0448538,0
0.507151,-0.195446,0.0448394,0
0.505636,-0.19751,0.0447419,0
0.50473,-0.199807,0.0446948,0
0.503814,-0.202097,0.0446472,0
0.503342,-0.204564,0.0446366,0
0.504114,-0.207548,0.0447292,0
0.503523,-0.209974,0.0447093,0
0.502414,-0.212179,0.0446468,0
0.503244,-0.215213,0.0447453,0
0.502269,-0.217475,0.0446943,0
0.503106,-0.220532,0.0447942,0
0.50211,-0.222786,0.0447421,0
0.502278,-0.225561,0.0447869,0
0.503811,-0.228968,0.0449458,0
0.50398,-0.231766,0.0449915,0
0.503801,-0.23441,0.0450085,0
0.501905,-0.236247,0.0448826,0
0.503959,-0.239958,0.0450865,0
0.502762,-0.242126,0.0450194,0
0.50305,-0.245013,0.0450764,0
0.503112,-0.247799,0.045115,0
0.504392,-0.2512,0.045256,0
0.507308,-0.255448,0.0455345,0
0.506183,-0.257671,0.0454746,0
0.505051,-0.259884,0.0454143,0
0.50543,-0.26288,0.045481,0
0.507385,-0.266717,0.0456806,0
0.506221,-0.268922,0.0456183,0
0.505051,-0.271116,0.0455555,0
0.504913,-0.273866,0.0455798,0
0.507679,-0.278217,0.0458495,0
0.512938,0.301892,0.0453531,0
0.513975,0.29954,0.0453888,0
0.514227,0.296741,0.0453599,0
0.514401,0.293904,0.0453248,0
0.515232,0.291434,0.045344,0
0.513962,0.287815,0.0451907,0
0.511984,0.283835,0.0449799,0
0.512403,0.281166,0.044966,0
0.50798,0.275938,0.0445562,0
0.509155,0.273697,0.0446051,0
0.507732,0.270104,0.0444419,0
0.508888,0.267855,0.0444895,0
0.508894,0.265018,0.0444436,0
0.509625,0.262551,0.044457,0
0.510349,0.26008,0.04447,0
0.510303,0.257229,0.0444206,0
0.510614,0.25456,0.0444005,0
0.510366,0.251625,0.0443353,0
0.511455,0.249334,0.0443787,0
0.508919,0.24534,0.0441292,0
0.509921,0.243018,0.0441662,0
0.508156,0.239425,0.04398,0
0.509199,0.237128,0.0440208,0
0.510233,0.234823,0.044061,0
0.510632,0.232233,0.0440504,0
0.511648,0.229914,0.0440895,0
0.512628,0.227576,0.044126,0
0.513221,0.225068,0.0441316,0
0.512677,0.222082,0.0440463,0
0.511757,0.218953,0.0439314,0
0.513248,0.216828,0.0440097,0
0.513158,0.214053,0.0439618,0
0.512656,0.211122,0.0438815,0
0.513199,0.208613,0.0438849,0
0.513761,0.206112,0.0438901,0
0.514084,0.20352,0.0438765,0
0.515041,0.20117,0.0439136,0
0.51449,0.198254,0.0438313,0
0.51514,0.195791,0.0438446,0
0.514513,0.192864,0.0437569,0
0.513066,0.189655,0.0436049,0
0.510979,0.186242,0.0434027,0
0.509006,0.182895,0.0432101,0
0.499392,0.176959,0.0424147,0
0.45759,0.160273,0.0390805,0
0.401414,0.139248,0.0346188,0
0.349132,0.120073,0.0304718,0
0.304436,0.103878,0.0269295,0
0.285659,0.0963514,0.0254319,0
0.280084,0.0931337,0.0249747,0
0.276704,0.0906485,0.0246908,0
0.272203,0.087862,0.0243195,0
0.272588,0.0865726,0.0243321,0
0.272967,0.0852803,0.0243444,0
0.273124,0.0839234,0.0243395,0
0.273492,0.0826265,0.0243512,0
0.275675,0.0818307,0.0245051,0
0.277876,0.08102,0.0246602,0
0.277659,0.0795458,0.0246266,0
0.278007,0.078224,0.0246374,0
0.276577,0.0764451,0.0245097,0
0.270914,0.0736181,0.0240529,0
0.274508,0.0731321,0.0243172,0
0.271551,0.07103,0.0240719,0
0.27467,0.0703975,0.0242993,0
0.273172,0.0686664,0.0241681,0
0.273471,0.0673598,0.0241767,0
0.274758,0.0662715,0.0242621,0
0.275156,0.0649801,0.0242788,0
0.275462,0.0636671,0.0242884,0
0.279479,0.0631224,0.0245855,0
0.285301,0.0629054,0.025022,0
0.293113,0.0630266,0.0256121,0
0.306481,0.0641438,0.0266308,0
0.354298,0.0715996,0.0303083,0
0.509607,0.098249,0.0422761,0
0.518718,0.0973686,0.0429559,0
0.51915,0.0949002,0.0429665,0
0.514672,0.0916042,0.0425991,0
0.517491,0.0895478,0.0427945,0
0.520146,0.0874409,0.0429774,0
0.518273,0.084615,0.0428122,0
0.516564,0.0818344,0.0426603,0
0.516644,0.079331,0.0426464,0
0.516993,0.076867,0.0426536,0
0.517271,0.0743928,0.0426557,0
0.516888,0.0718327,0.0426076,0
0.517202,0.0693657,0.0426134,0
0.515865,0.0666998,0.042493,0
0.51798,0.0644473,0.0426377,0
0.516706,0.0618019,0.0425231,0
0.515926,0.059223,0.0424468,0
0.516302,0.0567706,0.0424595,0
0.516071,0.054258,0.0424262,0
0.517162,0.0518706,0.0424944,0
0.516523,0.0493244,0.0424307,0
0.517579,0.0469251,0.0424971,0
0.515968,0.0443113,0.0423602,0
0.516153,0.0418446,0.0423609,0
0.514514,0.039254,0.0422228,0
0.51556,0.0368495,0.04229,0
0.511938,0.0341644,0.0420016,0
0.508527,0.0315261,0.04173,0
0.431286,0.0253169,0.03583,0
0.327856,0.0186861,0.0279375,0
0.279856,0.0152167,0.0242733,0
0.276771,0.0137569,0.0240328,0
0.272972,0.0123055,0.0237384,0
0.268833,0.0108818,0.0234185,0
0.267575,0.00955642,0.0233181,0
0.266566,0.00824716,0.0232371,0
0.264587,0.00693706,0.0230826,0
0.2637,0.00565266,0.0230113,0
0.261202,0.00437437,0.0228178,0
0.260418,0.00311429,0.0227549,0
0.25793,0.00187522,0.0225627,0
0.257844,0.000629255,0.0225535,0
0.258198,-0.000623554,0.0225778,0
0.258173,-0.00187141,0.0225737,0
0.258143,-0.00311899,0.0225693,0
0.256827,-0.00432582,0.0224674,0
0.255515,-0.00552058,0.0223661,0
0.253741,-0.00668416,0.0222299,0
0.254091,-0.00792845,0.0222553,0
0.25225,-0.00906577,0.0221145,0
0.253455,-0.0103542,0.0222054,0
0.252059,-0.0114985,0.0220988,0
0.251779,-0.0127022,0.0220773,0
0.250498,-0.0138342,0.0219799,0
0.250046,-0.0150161,0.0219457,0
0.249954,-0.0162226,0.0219391,0
0.254116,-0.0177848,0.0222559,0
0.260239,-0.0195603,0.022722,0
0.278529,-0.0225281,0.0241129,0
0.333726,-0.0292834,0.0283091,0
0.483466,-0.0462692,0.0396917,0
0.575168,-0.0584473,0.0466652,0
0.587342,-0.0625796,0.0475948,0
0.524538,-0.0580623,0.0428249,0
0.514746,-0.0594001,0.0420852,0
0.514761,-0.0618867,0.0420914,0
0.518314,-0.0648397,0.0423672,0
0.518055,-0.0673103,0.0423534,0
0.516891,-0.0696532,0.0422713,0
0.514752,-0.0718453,0.0421154,0
0.514229,-0.0742622,0.0420827,0
0.516139,-0.0770542,0.0422357,0
0.516488,-0.0796173,0.0422704,0
0.517943,-0.0823686,0.0423897,0
0.518609,-0.0850028,0.0424494,0
0.518345,-0.0874839,0.0424387,0
0.515822,-0.0895603,0.0422562,0
0.515244,-0.0919733,0.0422223,0
0.513023,-0.0940735,0.0420636,0
0.515161,-0.0969996,0.0422376,0
0.514686,-0.0994307,0.0422127,0
0.515883,-0.102201,0.0423159,0
0.513224,-0.104182,0.0421251,0
0.512843,-0.106627,0.0421086,0
0.512325,-0.109041,0.042082,0
0.512634,-0.111638,0.0421189,0
0.512645,-0.114174,0.0421336,0
0.512316,-0.116635,0.0421226,0
0.514546,-0.119704,0.0423077,0
0.513969,-0.122118,0.0422785,0
0.514201,-0.124731,0.0423116,0
0.513601,-0.127139,0.0422815,0
0.512818,-0.129499,0.0422377,0
0.512098,-0.131871,0.042199,0
0.511566,-0.134291,0.0421751,0
0.511164,-0.136745,0.0421615,0
0.512065,-0.139561,0.0422483,0
0.513352,-0.142498,0.0423651,0
0.512674,-0.144889,0.0423315,0
0.513478,-0.14771,0.0424121,0
0.512777,-0.150097,0.0423775,0
0.511979,-0.152453,0.0423356,0
0.511259,-0.154828,0.0423001,0
0.511462,-0.15749,0.042336,0
0.512472,-0.160413,0.0424344,0
0.512859,-0.163152,0.0424852,0
0.510344,-0.16495,0.0423126,0
0.50957,-0.167305,0.0422746,0
0.508786,-0.169655,0.0422361,0
0.510584,-0.172885,0.0423972,0
0.509777,-0.175234,0.0423575,0
0.508366,-0.177367,0.0422715,0
0.506903,-0.179473,0.0421816,0
0.506128,-0.181818,0.0421451,0
0.505284,-0.184135,0.0421037,0
0.506141,-0.187083,0.0421943,0
0.50767,-0.1903,0.0423375,0
0.506792,-0.192616,0.0422943,0
0.505942,-0.194939,0.0422535,0
0.505571,-0.197447,0.0422503,0
0.504914,-0.199843,0.042225,0
0.503998,-0.202133,0.0421798,0
0.505318,-0.205335,0.0423091,0
0.504381,-0.20762,0.0422628,0
0.503706,-0.210011,0.0422372,0
0.50275,-0.212282,0.04219,0
0.504655,-0.21578,0.0423664,0
0.504688,-0.218489,0.0423969,0
0.504844,-0.221258,0.0424374,0
0.502702,-0.223009,0.0422984,0
0.504867,-0.226689,0.0424968,0
0.504046,-0.229034,0.0424616,0
0.504035,-0.23175,0.0424901,0
0.503123,-0.234051,0.0424483,0
0.50239,-0.236434,0.0424207,0
0.504895,-0.240363,0.0426477,0
0.503836,-0.242603,0.0425951,0
0.50323,-0.245058,0.0425782,0
0.502124,-0.247267,0.0425222,0
0.502196,-0.250058,0.0425591,0
0.505167,-0.254322,0.0428251,0
0.506148,-0.257608,0.0429345,0
0.507295,-0.260998,0.0430575,0
0.507765,-0.264053,0.0431273,0
0.50661,-0.266263,0.0430688,0
0.503303,-0.267321,0.0428399,0
0.504105,-0.270561,0.0429366,0
0.50582,-0.274313,0.0431061,0
0.504632,-0.276496,0.0430455,0
0.517903,0.304706,0.0431278,0
0.514147,0.299602,0.0427892,0
0.515406,0.297369,0.0428396,0
0.51565,0.294564,0.0428116,0
0.514381,0.290929,0.042667,0
0.513253,0.287393,0.0425339,0
0.511377,0.283473,0.0423434,0
0.511459,0.280627,0.0423043,0
0.507098,0.275437,0.0419239,0
0.509705,0.273951,0.0420795,0
0.507553,0.269977,0.0418699,0
0.508707,0.267729,0.0419144,0
0.50898,0.265028,0.0418913,0
0.508364,0.261886,0.0418006,0
0.506784,0.258279,0.0416367,0
0.5073,0.255724,0.0416332,0
0.508381,0.253445,0.0416729,0
0.509477,0.251167,0.0417138,0
0.51163,0.249386,0.0418353,0
0.511457,0.246498,0.04178,0
0.510096,0.243068,0.041635,0
0.509121,0.239836,0.0415197,0
0.510165,0.237535,0.0415577,0
0.512973,0.236018,0.0417292,0
0.509282,0.231607,0.0414097,0
0.510294,0.229294,0.041446,0
0.510577,0.226662,0.0414275,0
0.511396,0.224262,0.0414496,0
0.512381,0.221929,0.0414844,0
0.511419,0.218784,0.041373,0
0.513426,0.216873,0.041485,0
0.512549,0.213779,0.0413807,0
0.513215,0.211318,0.0413926,0
0.513766,0.20881,0.0413959,0
0.51487,0.206517,0.041441,0
0.515783,0.204146,0.0414719,0
0.516687,0.201767,0.0415024,0
0.515024,0.198428,0.0413417,0
0.514555,0.19555,0.0412705,0
0.514691,0.192903,0.0412447,0
0.515247,0.190411,0.0412505,0
0.516093,0.188021,0.0412782,0
0.513404,0.184399,0.0410436,0
0.510787,0.180836,0.0408152,0
0.509538,0.177766,0.0406888,0
0.494387,0.170099,0.0395337,0
0.452837,0.153961,0.0364284,0
0.391037,0.131735,0.0318322,0
0.333216,0.111402,0.0275379,0
0.297895,0.0986729,0.024911,0
0.2851,0.0932112,0.0239492,0
0.276852,0.0892527,0.0233241,0
0.277243,0.0879419,0.0233359,0
0.275121,0.0858975,0.0231631,0
0.275498,0.0845926,0.0231743,0
0.275868,0.0832849,0.0231852,0
0.277613,0.0823559,0.0232971,0
0.276315,0.0805862,0.023186,0
0.269019,0.0772341,0.0226359,0
0.277014,0.0779547,0.023206,0
0.276674,0.0764606,0.0231658,0
0.272549,0.0740201,0.0228492,0
0.272872,0.0727197,0.0228581,0
0.271647,0.0710444,0.0227542,0
0.272964,0.069985,0.022836,0
0.273269,0.0686803,0.0228442,0
0.274047,0.0674821,0.022887,0
0.274855,0.0662851,0.0229321,0
0.274628,0.0648577,0.022902,0
0.273752,0.0632969,0.0228251,0
0.27346,0.0618677,0.0227908,0
0.274717,0.0607568,0.0228692,0
0.275431,0.0595282,0.0229083,0
0.27746,0.058548,0.023043,0
0.283901,0.0583779,0.0234973,0
0.313846,0.0624445,0.0256534,0
0.382229,0.073064,0.0305892,0
0.494691,0.0906545,0.038708,0
0.513254,0.0913552,0.0400297,0
0.517672,0.0895673,0.0403283,0
0.522939,0.0878744,0.0406882,0
0.518454,0.0846336,0.0403443,0
0.516704,0.0818464,0.0401984,0
0.516584,0.079314,0.0401706,0
0.516149,0.0767414,0.0401205,0
0.516486,0.0742796,0.0401265,0
0.516788,0.0718125,0.0401303,0
0.517383,0.0693816,0.0401556,0
0.516045,0.0667151,0.0400423,0
0.516776,0.0643024,0.0400782,0
0.515839,0.0617005,0.0399946,0
0.514334,0.0590494,0.0398706,0
0.514588,0.0565926,0.0398735,0
0.516252,0.0542712,0.039978,0
0.517232,0.0518731,0.0400337,0
0.516703,0.0493366,0.0399816,0
0.515182,0.0467255,0.0398587,0
0.516149,0.0443227,0.0399147,0
0.515884,0.0418229,0.0398828,0
0.516057,0.0393568,0.0398826,0
0.515803,0.0368636,0.0398524,0
0.514787,0.0343296,0.039768,0
0.506449,0.0314144,0.0391601,0
0.431437,0.0253243,0.0337834,0
0.318744,0.0182847,0.0257153,0
0.279954,0.015221,0.0229358,0
0.276879,0.0137613,0.0227107,0
0.268161,0.0121626,0.0220828,0
0.26737,0.0108461,0.0220217,0
0.266869,0.00954335,0.0219815,0
0.265396,0.00823035,0.0218721,0
0.26468,0.00693984,0.0218172,0
0.263793,0.00565522,0.0217501,0
0.262377,0.00437833,0.0216456,0
0.26235,0.00311049,0.0216405,0
0.260881,0.0018544,0.0215327,0
0.256629,0.000647431,0.0212266,0
0.257815,-0.000613884,0.0213087,0
0.257791,-0.00185972,0.0213046,0
0.25671,-0.00307708,0.0212254,0
0.255935,-0.00429404,0.0211683,0
0.255041,-0.00549952,0.0211029,0
0.253428,-0.00666731,0.0209864,0
0.253531,-0.00789861,0.0209925,0
0.252281,-0.00906291,0.0209024,0
0.253544,-0.0103544,0.0209916,0
0.252147,-0.0114989,0.0208914,0
0.252245,-0.0127272,0.0208979,0
0.250586,-0.0138351,0.0207795,0
0.248724,-0.0149126,0.0206467,0
0.248633,-0.0161128,0.0206404,0
0.249944,-0.01743,0.0207343,0
0.254478,-0.019045,0.021058,0
0.26106,-0.0208944,0.021528,0
0.281836,-0.0241963,0.0230101,0
0.37351,-0.0349724,0.029547,0
0.521871,-0.0527085,0.0401268,0
0.587547,-0.062586,0.044813,0
0.550599,-0.0610939,0.0421824,0
0.5204,-0.0600727,0.040033,0
0.515155,-0.0619207,0.0396633,0
0.518563,-0.0648561,0.0399113,0
0.518167,-0.0673089,0.0398883,0
0.51528,-0.0694094,0.039688,0
0.514707,-0.0718214,0.0396531,0
0.514347,-0.0742623,0.0396339,0
0.517052,-0.0771777,0.0398338,0
0.518329,-0.0798931,0.0399322,0
0.517932,-0.0823476,0.0399115,0
0.516738,-0.0846659,0.0398343,0
0.518525,-0.0874953,0.0399704,0
0.515889,-0.0895521,0.0397908,0
0.516521,-0.0921877,0.0398452,0
0.515804,-0.0945777,0.0398035,0
0.515604,-0.0970638,0.0397991,0
0.51655,-0.099779,0.0398772,0
0.516162,-0.102235,0.0398602,0
0.513403,-0.104197,0.0396738,0
0.512865,-0.106608,0.0396467,0
0.511869,-0.108918,0.0395872,0
0.513589,-0.111828,0.0397226,0
0.513047,-0.114242,0.0396963,0
0.512494,-0.116652,0.0396696,0
0.514149,-0.119585,0.0398016,0
0.513572,-0.121997,0.0397739,0
0.512985,-0.124404,0.0397458,0
0.513506,-0.127089,0.0397977,0
0.512896,-0.129493,0.0397687,0
0.512275,-0.131891,0.0397392,0
0.511983,-0.134375,0.0397337,0
0.512897,-0.137189,0.0398152,0
0.510688,-0.139151,0.0396725,0
0.509729,-0.141448,0.03962,0
0.509056,-0.143822,0.0395883,0
0.508441,-0.146211,0.0395612,0
0.510501,-0.149392,0.0397272,0
0.511573,-0.1523,0.0398224,0
0.510852,-0.154673,0.0397887,0
0.510222,-0.157072,0.0397618,0
0.510896,-0.159883,0.0398294,0
0.511851,-0.162796,0.0399177,0
0.511001,-0.165133,0.0398759,0
0.510311,-0.16752,0.0398459,0
0.511643,-0.170586,0.0399626,0
0.510898,-0.172961,0.0399293,0
0.510038,-0.175292,0.0398879,0
0.50917,-0.177618,0.0398463,0
0.508343,-0.179954,0.0398078,0
0.507507,-0.182284,0.0397689,0
0.508397,-0.185246,0.0398557,0
0.507539,-0.18757,0.0398158,0
0.510316,-0.191266,0.0400405,0
0.506252,-0.192374,0.0397679,0
0.508541,-0.195913,0.0399578,0
0.505745,-0.197479,0.0397778,0
0.505087,-0.199876,0.0397537,0
0.50417,-0.202166,0.039711,0
0.503381,-0.204505,0.0396778,0
0.502836,-0.206943,0.0396627,0
0.503557,-0.209912,0.0397403,0
0.502634,-0.212195,0.039698,0
0.5043,-0.215589,0.0398454,0
0.504692,-0.218452,0.0399,0
0.505828,-0.221653,0.0400095,0
0.504016,-0.223557,0.039903,0
0.505039,-0.226728,0.0400048,0
0.504217,-0.229072,0.0399715,0
0.503188,-0.231319,0.0399231,0
0.502566,-0.233751,0.0399048,0
0.501361,-0.235907,0.0398437,0
0.502137,-0.239004,0.0399288,0
0.504007,-0.242644,0.0400948,0
0.5034,-0.2451,0.0400786,0
0.503686,-0.247997,0.0401284,0
0.502589,-0.250213,0.0400763,0
0.502819,-0.253094,0.0401226,0
0.506319,-0.257653,0.0404111,0
0.501335,-0.257879,0.0400718,0
0.502917,-0.261481,0.040219,0
0.501773,-0.26367,0.0401643,0
0.501697,-0.266423,0.040189,0
0.501106,-0.268904,0.0401756,0
0.503098,-0.272789,0.0403545,0
0.509566,-0.279162,0.0408671,0
0.507788,0.298866,0.0397596,0
0.514464,0.299749,0.0401994,0
0.515362,0.297311,0.04022,0
0.515813,0.294622,0.0402085,0
0.513712,0.290527,0.0400128,0
0.511089,0.28618,0.0397802,0
0.511539,0.283528,0.0397695,0
0.511622,0.280682,0.0397326,0
0.507259,0.275491,0.0393765,0
0.509867,0.274004,0.0395217,0
0.508067,0.270213,0.0393506,0
0.50528,0.265942,0.0391095,0
0.50642,0.2637,0.0391499,0
0.507552,0.261449,0.0391899,0
0.509331,0.259512,0.0392762,0
0.50913,0.256592,0.0392212,0
0.508113,0.253285,0.0391085,0
0.509208,0.251009,0.0391464,0
0.510542,0.248841,0.0392013,0
0.510238,0.245898,0.0391401,0
0.51026,0.243116,0.0391024,0
0.509284,0.239883,0.0389942,0
0.511507,0.238114,0.0391128,0
0.511468,0.235318,0.0390715,0
0.51382,0.233584,0.0391993,0
0.513515,0.230672,0.0391397,0
0.512774,0.227582,0.0390495,0
0.513772,0.225247,0.0390823,0
0.513019,0.222172,0.0389921,0
0.513996,0.219828,0.0390239,0
0.513592,0.216915,0.0389588,0
0.512443,0.213711,0.038842,0
0.513382,0.211359,0.0388717,0
0.513268,0.208588,0.038828,0
0.51586,0.206877,0.0389739,0
0.516431,0.20437,0.0389786,0
0.515321,0.201226,0.0388661,0
0.5147,0.198283,0.0387883,0
0.513991,0.195319,0.0387047,0
0.514557,0.192832,0.0387102,0
0.513894,0.189904,0.0386305,0
0.515728,0.187869,0.0387248,0
0.516564,0.185475,0.0387498,0
0.51739,0.183074,0.0387744,0
0.511759,0.178494,0.038352,0
0.510497,0.175427,0.0382329,0
0.50845,0.172121,0.0380601,0
0.490992,0.163883,0.0368232,0
0.435878,0.143902,0.0329897,0
0.365981,0.119879,0.0281436,0
0.320808,0.104147,0.0250094,0
0.285603,0.0918809,0.022567,0
0.282061,0.0893599,0.0223067,0
0.280109,0.0873411,0.0221565,0
0.280492,0.0860132,0.0221669,0
0.279842,0.0843935,0.0221067,0
0.277704,0.0823717,0.0219446,0
0.276406,0.0806016,0.0218405,0
0.277359,0.0794469,0.0218909,0
0.278197,0.0782549,0.0219335,0
0.278049,0.0768043,0.0219088,0
0.272639,0.0740344,0.0215249,0
0.272962,0.0727338,0.0215331,0
0.268885,0.0703692,0.0212413,0
0.272703,0.0699155,0.0214882,0
0.270852,0.0681126,0.0213487,0
0.270829,0.0667449,0.0213341,0
0.271119,0.0654489,0.0213411,0
0.271403,0.064151,0.0213477,0
0.270326,0.0625636,0.0212621,0
0.270598,0.061268,0.0212683,0
0.273386,0.060481,0.0214454,0
0.275071,0.0594509,0.0215477,0
0.275427,0.0581504,0.0215599,0
0.277038,0.0570837,0.0216574,0
0.280633,0.0563661,0.0218891,0
0.295553,0.0576309,0.0228868,0
0.319663,0.0603437,0.0245047,0
0.375972,0.0682437,0.0282963,0
0.513827,0.0889297,0.0375897,0
0.52317,0.0879023,0.038201,0
0.523559,0.0854105,0.0382079,0
0.523876,0.0829071,0.0382104,0
0.516753,0.0793308,0.037712,0
0.515879,0.0766966,0.0376353,0
0.516578,0.0742853,0.0376649,0
0.516904,0.0718212,0.0376698,0
0.517271,0.0693616,0.0376777,0
0.514514,0.0665254,0.0374761,0
0.515325,0.0641298,0.0375147,0
0.515165,0.0616211,0.0374885,0
0.514353,0.059047,0.0374188,0
0.514607,0.0565905,0.0374212,0
0.516421,0.0542838,0.0375285,0
0.517401,0.0518854,0.0375802,0
0.516872,0.0493485,0.0375312,0
0.51534,0.046736,0.0374153,0
0.515547,0.0442741,0.0374163,0
0.515732,0.0418102,0.0374163,0
0.516225,0.039367,0.0374373,0
0.516253,0.0368911,0.0374275,0
0.514955,0.034339,0.0373294,0
0.499396,0.0310365,0.0362784,0
0.411547,0.0243535,0.0303971,0
0.308909,0.0178516,0.0235314,0
0.278136,0.0151501,0.0214701,0
0.276959,0.013765,0.0213864,0
0.26924,0.0121959,0.0208663,0
0.267439,0.010849,0.0207415,0
0.266927,0.00954595,0.0207031,0
0.265483,0.00823335,0.0206027,0
0.263869,0.00693276,0.0204912,0
0.264533,0.00566188,0.0205319,0
0.263855,0.00438281,0.0204833,0
0.262462,0.00311256,0.0203873,0
0.260967,0.00185633,0.0202846,0
0.258094,0.000631694,0.0200904,0
0.2579,-0.000612369,0.0200749,0
0.257876,-0.0018584,0.020071,0
0.255202,-0.00303327,0.0198907,0
0.255166,-0.00426622,0.0198864,0
0.253715,-0.00544766,0.019788,0
0.253368,-0.00666092,0.0197634,0
0.253315,-0.00788461,0.0197585,0
0.251943,-0.00904151,0.0196659,0
0.25257,-0.0102962,0.0197068,0
0.251809,-0.0114739,0.0196553,0
0.25075,-0.0126257,0.0195842,0
0.248547,-0.0136885,0.0194372,0
0.248119,-0.0148626,0.0194085,0
0.246662,-0.0159519,0.0193115,0
0.248618,-0.0173134,0.0194419,0
0.252367,-0.0188526,0.0196919,0
0.254451,-0.0202729,0.0198312,0
0.261615,-0.0222108,0.0203089,0
0.305724,-0.0280081,0.0232468,0
0.403608,-0.0399988,0.029766,0
0.546987,-0.0580229,0.0393161,0
0.58742,-0.0653822,0.0420121,0
0.550467,-0.0637155,0.0395547,0
0.519048,-0.0623979,0.0374658,0
0.518664,-0.0648538,0.0374444,0
0.514683,-0.0668193,0.0371837,0
0.515224,-0.0693853,0.0372247,0
0.514875,-0.0718293,0.0372067,0
0.514545,-0.0742751,0.0371903,0
0.518123,-0.0773263,0.0374348,0
0.518497,-0.0799022,0.0374663,0
0.5181,-0.0823571,0.0374466,0
0.516663,-0.0846345,0.0373578,0
0.518638,-0.0874959,0.0374971,0
0.516361,-0.0896172,0.037353,0
0.516689,-0.0921989,0.0373832,0
0.515466,-0.0944938,0.0373101,0
0.515635,-0.0970495,0.0373303,0
0.515159,-0.099482,0.0373078,0
0.51633,-0.102248,0.0373957,0
0.514316,-0.104365,0.037271,0
0.513905,-0.106808,0.0372539,0
0.513385,-0.109227,0.0372298,0
0.513756,-0.111842,0.0372656,0
0.512759,-0.114153,0.0372103,0
0.512911,-0.116726,0.0372321,0
0.51234,-0.119131,0.037206,0
0.514314,-0.122152,0.0373506,0
0.515428,-0.124984,0.0374381,0
0.515401,-0.127542,0.0374494,0
0.513335,-0.12958,0.0373243,0
0.511816,-0.131745,0.0372362,0
0.511186,-0.134137,0.0372079,0
0.511507,-0.136785,0.0372438,0
0.510854,-0.139171,0.0372147,0
0.509939,-0.141481,0.0371682,0
0.509265,-0.143855,0.0371383,0
0.509884,-0.146605,0.0371956,0
0.51049,-0.149361,0.0372523,0
0.510313,-0.151891,0.0372568,0
0.510077,-0.154407,0.0372575,0
0.509348,-0.156771,0.0372253,0
0.508608,-0.159129,0.0371927,0
0.511052,-0.162509,0.0373751,0
0.511166,-0.165157,0.0374007,0
0.510892,-0.167682,0.0374005,0
0.512165,-0.170732,0.0375051,0
0.511063,-0.172986,0.0374495,0
0.510255,-0.175336,0.037414,0
0.508797,-0.177455,0.0373347,0
0.50797,-0.179789,0.0372985,0
0.507134,-0.182117,0.0372618,0
0.506873,-0.184653,0.0372643,0
0.506018,-0.186971,0.0372268,0
0.506834,-0.189917,0.037303,0
0.50768,-0.192888,0.0373816,0
0.509158,-0.196119,0.0375034,0
0.505909,-0.19751,0.0373042,0
0.505001,-0.199807,0.0372643,0
0.504469,-0.202252,0.0372502,0
0.503647,-0.204579,0.0372166,0
0.502997,-0.206975,0.037195,0
0.502754,-0.209539,0.0372012,0
0.503033,-0.21233,0.0372434,0
0.504461,-0.215623,0.0373644,0
0.504853,-0.218486,0.0374149,0
0.504031,-0.220825,0.0373828,0
0.503034,-0.223082,0.0373387,0
0.503368,-0.225936,0.0373861,0
0.504378,-0.229108,0.03748,0
0.503348,-0.231356,0.0374344,0
0.503768,-0.234275,0.0374884,0
0.50272,-0.236512,0.0374419,0
0.502809,-0.239287,0.0374738,0
0.504166,-0.242683,0.0375931,0
0.504546,-0.245622,0.0376454,0
0.503855,-0.248042,0.0376244,0
0.502757,-0.250258,0.0375753,0
0.50187,-0.252575,0.037541,0
0.503086,-0.255962,0.037652,0
0.501392,-0.257868,0.0375622,0
0.503075,-0.261523,0.0377061,0
0.50193,-0.263713,0.0376546,0
0.502374,-0.266743,0.0377133,0
0.501263,-0.268947,0.0376644,0
0.503255,-0.272834,0.037831,0
0.506414,-0.277389,0.038079,0
0.519326,0.305458,0.0379559,0
0.513708,0.299288,0.037535,0
0.515513,0.297366,0.037615,0
0.516766,0.295122,0.0376578,0
0.512959,0.290083,0.0373607,0
0.51175,0.286511,0.0372388,0
0.512453,0.283992,0.0372454,0
0.511773,0.280734,0.0371596,0
0.510358,0.277101,0.0370249,0
0.511798,0.274986,0.0370814,0
0.511189,0.271801,0.0370012,0
0.508147,0.267383,0.0367592,0
0.507222,0.264079,0.0366589,0
0.508357,0.261824,0.0366958,0
0.509483,0.25956,0.0367323,0
0.50821,0.256114,0.0366097,0
0.508265,0.253332,0.0365755,0
0.508229,0.250513,0.0365355,0
0.511993,0.249502,0.0367471,0
0.510391,0.245943,0.0366039,0
0.510581,0.243238,0.0365795,0
0.509452,0.239934,0.0364684,0
0.510497,0.237632,0.0365009,0
0.514424,0.236614,0.036723,0
0.515458,0.234282,0.0367547,0
0.51367,0.230715,0.0366014,0
0.510895,0.226748,0.0363839,0
0.51189,0.224421,0.036414,0
0.511029,0.221311,0.0363227,0
0.510553,0.218375,0.0362571,0
0.511515,0.21604,0.0362856,0
0.510823,0.213032,0.0362064,0
0.512491,0.21098,0.0362814,0
0.513285,0.208572,0.0362996,0
0.515903,0.206871,0.0364366,0
0.516017,0.204189,0.0364109,0
0.516922,0.20181,0.0364367,0
0.515348,0.198503,0.0363021,0
0.51355,0.195136,0.0361534,0
0.513195,0.192316,0.0360985,0
0.514049,0.189939,0.0361223,0
0.516418,0.188092,0.0362441,0
0.518609,0.186165,0.0363545,0
0.517547,0.183108,0.0362551,0
0.513127,0.178935,0.0359398,0
0.512387,0.176035,0.0358622,0
0.51123,0.173011,0.0357582,0
0.509373,0.16978,0.0356097,0
0.506416,0.166224,0.035391,0
0.471373,0.152705,0.0331147,0
0.411495,0.131934,0.0292507,0
0.346561,0.110248,0.0250697,0
0.30548,0.0962926,0.0224222,0
0.286987,0.0893361,0.0212234,0
0.281297,0.0862345,0.0208446,0
0.279928,0.0844089,0.0207425,0
0.278494,0.0825812,0.0206364,0
0.276491,0.0806163,0.0204944,0
0.276844,0.0793014,0.0205029,0
0.280588,0.078872,0.0207273,0
0.277339,0.0766145,0.0205069,0
0.272723,0.0740479,0.0202,0
0.27063,0.0721515,0.020054,0
0.268968,0.070382,0.0199357,0
0.272787,0.0699283,0.0201653,0
0.269005,0.067678,0.0199131,0
0.27132,0.0668495,0.0200474,0
0.269588,0.0651029,0.0199257,0
0.269341,0.0636972,0.0198981,0
0.269617,0.0624071,0.0199039,0
0.270681,0.0612794,0.0199595,0
0.27347,0.0604922,0.0201241,0
0.273732,0.0591808,0.0201292,0
0.274121,0.0578935,0.0201426,0
0.275082,0.0567114,0.0201921,0
0.275326,0.0553908,0.0201967,0
0.277052,0.0543332,0.0202946,0
0.287233,0.0547245,0.020924,0
0.29752,0.0550366,0.0215596,0
0.320248,0.0572845,0.0229757,0
0.384106,0.0658381,0.0269715,0
0.516178,0.084268,0.0352414,0
0.519409,0.0822345,0.0354262,0
0.516911,0.0793469,0.0352523,0
0.516036,0.0767123,0.0351805,0
0.516373,0.0742517,0.035185,0
0.515483,0.0716313,0.0351131,0
0.515796,0.0691721,0.0351168,0
0.514671,0.0665395,0.0350309,0
0.51496,0.0640831,0.0350339,0
0.515094,0.0616091,0.0350275,0
0.51451,0.0590599,0.0349766,0
0.513785,0.0565041,0.0349174,0
0.515006,0.0541446,0.0349798,0
0.515539,0.0517122,0.0349997,0
0.514256,0.0491191,0.0349068,0
0.512078,0.0464665,0.0347585,0
0.512722,0.0440543,0.0347864,0
0.511273,0.0414857,0.0346844,0
0.514802,0.0392697,0.0348924,0
0.51107,0.0365639,0.0346492,0
0.499414,0.0334329,0.0339138,0
0.452336,0.0285164,0.0309777,0
0.369348,0.0222938,0.0258125,0
0.283158,0.0167169,0.020452,0
0.277006,0.0151064,0.0200647,0
0.274413,0.0136778,0.0198989,0
0.269323,0.0121995,0.0195784,0
0.267521,0.0108524,0.0194622,0
0.264844,0.0095049,0.019292,0
0.263863,0.0082096,0.0192272,0
0.263755,0.00693339,0.0192167,0
0.263931,0.00566019,0.0192241,0
0.263936,0.00438521,0.019221,0
0.263406,0.003112,0.019185,0
0.263399,0.00183973,0.0191816,0
0.261885,0.00058658,0.0190851,0
0.257979,-0.000610774,0.0188406,0
0.255604,-0.00180507,0.0186911,0
0.254256,-0.00300459,0.0186055,0
0.25422,-0.00423289,0.0186013,0
0.252412,-0.00539675,0.0184875,0
0.250622,-0.00654455,0.0183752,0
0.251081,-0.00777844,0.0184021,0
0.251023,-0.00899093,0.0183973,0
0.252618,-0.0102944,0.0184949,0
0.250824,-0.0114104,0.018383,0
0.249809,-0.0125601,0.0183195,0
0.248623,-0.0136889,0.0182456,0
0.248537,-0.0148885,0.0182399,0
0.248104,-0.0160605,0.0182129,0
0.248061,-0.0172615,0.0182102,0
0.251325,-0.0187549,0.0184123,0
0.251984,-0.0200373,0.0184534,0
0.255908,-0.0216463,0.0186967,0
0.267474,-0.0240772,0.0194131,0
0.326376,-0.0316994,0.0230588,0
0.407685,-0.0423947,0.0280918,0
0.550945,-0.0611046,0.03696,0
0.60471,-0.0702973,0.0402906,0
0.53764,-0.0647331,0.0361427,0
0.515165,-0.0643801,0.0347549,0
0.514368,-0.0667614,0.0347094,0
0.514059,-0.069206,0.0346944,0
0.513712,-0.0716442,0.0346774,0
0.516158,-0.0745013,0.0348337,0
0.51828,-0.0773341,0.0349704,0
0.518222,-0.0798412,0.0349724,0
0.515984,-0.0819913,0.0348396,0
0.515001,-0.0843353,0.0347849,0
0.516644,-0.0871303,0.0348933,0
0.516517,-0.0896269,0.0348923,0
0.51724,-0.0922816,0.0349444,0
0.516392,-0.0946497,0.0348994,0
0.516321,-0.097163,0.0349029,0
0.519682,-0.10036,0.0351197,0
0.516257,-0.102213,0.0349157,0
0.514472,-0.104377,0.0348137,0
0.514061,-0.106821,0.0347974,0
0.514732,-0.109499,0.0348487,0
0.514624,-0.112014,0.0348518,0
0.514004,-0.114415,0.0348234,0
0.51345,-0.116829,0.0347994,0
0.512824,-0.119224,0.0347713,0
0.513037,-0.12182,0.0347956,0
0.513221,-0.124415,0.0348186,0
0.514983,-0.127413,0.03494,0
0.514371,-0.129823,0.034914,0
0.51435,-0.132385,0.0349251,0
0.513716,-0.134788,0.0348983,0
0.513071,-0.137186,0.0348711,0
0.510662,-0.139093,0.0347341,0
0.510093,-0.141499,0.0347121,0
0.509499,-0.143897,0.0346888,0
0.510568,-0.146778,0.0347698,0
0.512255,-0.149858,0.0348897,0
0.511545,-0.152237,0.0348601,0
0.511172,-0.154716,0.0348518,0
0.509501,-0.156791,0.0347626,0
0.508762,-0.15915,0.0347319,0
0.507961,-0.161486,0.0346976,0
0.510441,-0.164892,0.0348693,0
0.51063,-0.167567,0.0348976,0
0.512597,-0.170848,0.0350379,0
0.509464,-0.17241,0.0348583,0
0.509717,-0.17512,0.0348916,0
0.506978,-0.176784,0.034737,0
0.508123,-0.179814,0.0348268,0
0.508131,-0.182448,0.0348455,0
0.509063,-0.185428,0.0349225,0
0.509526,-0.188248,0.0349705,0
0.508713,-0.190596,0.0349382,0
0.507833,-0.192915,0.0349019,0
0.506943,-0.195227,0.0348652,0
0.507155,-0.197969,0.0348983,0
0.505152,-0.199836,0.0347917,0
0.504619,-0.202281,0.0347782,0
0.503693,-0.204566,0.03474,0
0.503148,-0.207004,0.034726,0
0.502903,-0.209569,0.0347314,0
0.503999,-0.212707,0.0348219,0
0.503313,-0.215096,0.0347998,0
0.503082,-0.217681,0.0348067,0
0.504013,-0.220783,0.0348876,0
0.504526,-0.223714,0.0349423,0
0.503853,-0.22612,0.0349218,0
0.503009,-0.228449,0.0348907,0
0.501053,-0.23026,0.0347888,0
0.502875,-0.233822,0.0349278,0
0.501216,-0.235765,0.0348453,0
0.502958,-0.239322,0.0349798,0
0.503899,-0.242517,0.0350635,0
0.50396,-0.245299,0.0350913,0
0.504004,-0.248079,0.0351183,0
0.502947,-0.250316,0.035075,0
0.502211,-0.25271,0.0350523,0
0.503234,-0.256,0.0351426,0
0.501539,-0.257907,0.0350588,0
0.502805,-0.261345,0.0351652,0
0.503677,-0.264595,0.0352465,0
0.502572,-0.26681,0.035201,0
0.501409,-0.268988,0.0351519,0
0.501688,-0.271943,0.0351957,0
0.500509,-0.274107,0.0351457,0
0.512582,0.30156,0.0348949,0
0.514853,0.299911,0.0349977,0
0.51441,0.296717,0.0349312,0
0.515278,0.294266,0.0349466,0
0.514848,0.291097,0.0348814,0
0.514042,0.287735,0.034793,0
0.513105,0.284318,0.0346968,0
0.509309,0.27939,0.0344239,0
0.510347,0.277069,0.0344509,0
0.511938,0.275033,0.0345122,0
0.513113,0.272772,0.0345477,0
0.511492,0.269071,0.0344109,0
0.507522,0.264205,0.0341297,0
0.508497,0.261869,0.0341537,0
0.510178,0.259879,0.0342212,0
0.511299,0.257603,0.0342543,0
0.512294,0.255261,0.0342798,0
0.50837,0.250556,0.0340039,0
0.512092,0.249525,0.0341968,0
0.509994,0.245733,0.0340336,0
0.510722,0.24328,0.0340435,0
0.510754,0.240506,0.0340111,0
0.511289,0.237967,0.0340096,0
0.512327,0.235653,0.0340389,0
0.515559,0.234304,0.0342017,0
0.51317,0.230474,0.0340229,0
0.511391,0.226939,0.0338817,0
0.512387,0.224611,0.0339091,0
0.511172,0.221349,0.0338029,0
0.510696,0.218413,0.0337417,0
0.511258,0.215914,0.0337437,0
0.510469,0.212868,0.0336641,0
0.51234,0.210899,0.0337454,0
0.512338,0.208178,0.0337139,0
0.514194,0.206186,0.0337945,0
0.512364,0.202767,0.0336535,0
0.514111,0.200726,0.0337279,0
0.515001,0.198353,0.0337509,0
0.513695,0.195169,0.0336424,0
0.513339,0.192349,0.0335913,0
0.514146,0.189955,0.0336101,0
0.514991,0.187571,0.0336313,0
0.516778,0.185511,0.033709,0
0.517605,0.183109,0.0337294,0
0.515554,0.179735,0.0335786,0
0.516356,0.177335,0.0335981,0
0.513489,0.173733,0.0333996,0
0.512604,0.170802,0.0333194,0
0.512523,0.168141,0.0332874,0
0.508364,0.164215,0.0330138,0
0.493434,0.157035,0.0321022,0
0.449897,0.141388,0.0294978,0
0.382471,0.119104,0.0254842,0
0.322949,0.0998057,0.0219449,0
0.301561,0.092029,0.020665,0
0.282009,0.0849862,0.0194957,0
0.282382,0.0836478,0.0195039,0
0.281272,0.0819059,0.0194249,0
0.281631,0.0805689,0.0194326,0
0.281984,0.0792293,0.0194402,0
0.278214,0.0768315,0.0192053,0
0.276329,0.0749477,0.0190818,0
0.270708,0.072164,0.0187393,0
0.271022,0.0708719,0.0187456,0
0.274193,0.0702545,0.0189196,0
0.273278,0.0686618,0.0188541,0
0.271397,0.0668611,0.0187323,0
0.265878,0.0642741,0.0183979,0
0.266157,0.063001,0.0184032,0
0.266431,0.061726,0.0184082,0
0.269965,0.0611257,0.0186038,0
0.273548,0.0605028,0.0188022,0
0.273234,0.0590775,0.0187731,0
0.273489,0.0577669,0.0187775,0
0.273738,0.0564545,0.0187817,0
0.274589,0.0552516,0.018821,0
0.275371,0.0540299,0.0188565,0
0.277364,0.0530119,0.0189624,0
0.281537,0.0523431,0.019195,0
0.284717,0.0514736,0.0193699,0
0.300671,0.0526008,0.020286,0
0.326417,0.0550815,0.021769,0
0.383474,0.06198,0.0250654,0
0.510137,0.0783648,0.0323906,0
0.512099,0.0761583,0.0324882,0
0.513842,0.0739061,0.0325735,0
0.51334,0.0713485,0.0325291,0
0.513652,0.0688998,0.0325322,0
0.513952,0.0664491,0.0325348,0
0.514815,0.0640627,0.0325703,0
0.515092,0.0616056,0.0325723,0
0.513403,0.0589397,0.0324611,0
0.510903,0.0562101,0.0323035,0
0.511144,0.0537702,0.0323044,0
0.51096,0.051291,0.0322812,0
0.512016,0.048923,0.0323297,0
0.511383,0.0464082,0.0322813,0
0.511234,0.0439383,0.0322611,0
0.504773,0.0410136,0.031878,0
0.500258,0.0382836,0.0316075,0
0.492243,0.0353771,0.0311362,0
0.452343,0.0306891,0.0288332,0
0.369362,0.0240729,0.0240569,0
0.290458,0.0184429,0.0195182,0
0.275747,0.016391,0.0186682,0
0.274443,0.0150064,0.0185884,0
0.272829,0.013624,0.0184911,0
0.2694,0.0122031,0.0182899,0
0.267597,0.0108558,0.0181823,0
0.26493,0.00950826,0.0180253,0
0.264943,0.00822834,0.0180222,0
0.263995,0.00693798,0.0179642,0
0.264006,0.00566279,0.0179613,0
0.264011,0.00438763,0.0179583,0
0.26296,0.0031159,0.0178949,0
0.262953,0.00184591,0.0178916,0
0.26196,0.000588456,0.0178319,0
0.261112,-0.000662155,0.0177808,0
0.255169,-0.00179239,0.0174383,0
0.254328,-0.00300328,0.0173879,0
0.254293,-0.00423175,0.0173839,0
0.252938,-0.00541227,0.0173045,0
0.250694,-0.00654377,0.0171744,0
0.250642,-0.00775448,0.0171699,0
0.250584,-0.00896473,0.0171653,0
0.25269,-0.0102941,0.0172845,0
0.25262,-0.0115135,0.0172795,0
0.24988,-0.0125602,0.0171219,0
0.248419,-0.0136701,0.0170377,0
0.248266,-0.0148636,0.0170284,0
0.247509,-0.0160085,0.0169847,0
0.248078,-0.0172577,0.0170171,0
0.248029,-0.0184584,0.0170142,0
0.251287,-0.019967,0.0172006,0
0.251681,-0.0212271,0.0172234,0
0.25682,-0.0229783,0.0175176,0
0.287817,-0.027554,0.0192904,0
0.348692,-0.0357736,0.0227719,0
0.485581,-0.0534545,0.0306006,0
0.60488,-0.0703023,0.0374247,0
0.562987,-0.0679217,0.0350317,0
0.514838,-0.0643232,0.0322809,0
0.511511,-0.0663588,0.0320937,0
0.51344,-0.0691043,0.0322074,0
0.513856,-0.0716503,0.0322349,0
0.514846,-0.0742889,0.0322956,0
0.514475,-0.0767283,0.0322787,0
0.515685,-0.0794195,0.0323527,0
0.51529,-0.0818606,0.032335,0
0.513347,-0.0840382,0.0322291,0
0.513974,-0.0866479,0.0322706,0
0.516115,-0.0895375,0.0323992,0
0.51644,-0.0921166,0.032424,0
0.515768,-0.0945137,0.0323921,0
0.515522,-0.0969899,0.0323849,0
0.515345,-0.0994804,0.0323819,0
0.514184,-0.101773,0.0323228,0
0.513687,-0.104195,0.032302,0
0.510943,-0.106137,0.0321526,0
0.514132,-0.109348,0.032344,0
0.514307,-0.111923,0.0323627,0
0.514148,-0.114427,0.0323625,0
0.513533,-0.116827,0.0323364,0
0.512968,-0.119237,0.0323135,0
0.512392,-0.121642,0.0322902,0
0.512594,-0.124238,0.0323119,0
0.511996,-0.126638,0.0322879,0
0.510106,-0.128704,0.0321899,0
0.509489,-0.131089,0.0321653,0
0.51153,-0.134182,0.032294,0
0.511186,-0.13665,0.0322857,0
0.510805,-0.139109,0.0322756,0
0.510315,-0.141538,0.0322594,0
0.51102,-0.144309,0.0323124,0
0.511485,-0.147021,0.0323519,0
0.510787,-0.149398,0.0323245,0
0.509113,-0.151478,0.0322411,0
0.509891,-0.154298,0.0322994,0
0.509347,-0.156717,0.0322817,0
0.509814,-0.159457,0.0323226,0
0.508103,-0.161505,0.0322379,0
0.508301,-0.164166,0.0322639,0
0.50981,-0.167268,0.032366,0
0.510402,-0.170081,0.0324154,0
0.508204,-0.171951,0.0323033,0
0.509696,-0.175085,0.0324053,0
0.507119,-0.176806,0.0322716,0
0.508264,-0.179836,0.0323541,0
0.507428,-0.182165,0.0323218,0
0.510287,-0.18585,0.0325045,0
0.509426,-0.188182,0.0324713,0
0.508555,-0.190507,0.0324377,0
0.506672,-0.192441,0.0323453,0
0.507084,-0.195252,0.0323868,0
0.506201,-0.197563,0.032353,0
0.505292,-0.199861,0.032318,0
0.504375,-0.202152,0.0322826,0
0.503937,-0.204635,0.0322753,0
0.50392,-0.207293,0.0322929,0
0.502974,-0.209568,0.0322564,0
0.503322,-0.212388,0.0322957,0
0.503452,-0.215124,0.0323226,0
0.503221,-0.21771,0.0323285,0
0.504312,-0.220882,0.0324122,0
0.503314,-0.22314,0.0323735,0
0.501923,-0.225217,0.032312,0
0.50163,-0.227786,0.032315,0
0.501191,-0.230291,0.0323097,0
0.501348,-0.233076,0.0323397,0
0.501354,-0.235797,0.0323609,0
0.504838,-0.240187,0.0325872,0
0.503958,-0.242512,0.0325567,0
0.502958,-0.244775,0.0325194,0
0.503008,-0.247552,0.0325441,0
0.503042,-0.250329,0.0325681,0
0.502348,-0.252744,0.0325492,0
0.503147,-0.255921,0.0326188,0
0.501915,-0.258065,0.0325684,0
0.504734,-0.262315,0.0327581,0
0.503813,-0.264632,0.0327265,0
0.504777,-0.267948,0.0328068,0
0.50361,-0.270135,0.0327608,0
0.506652,-0.274604,0.0329651,0
0.510245,-0.279416,0.0332027,0
0.523152,0.3076,0.0328973,0
0.513976,0.299387,0.0323338,0
0.51374,0.296315,0.0322841,0
0.514989,0.29408,0.0323197,0
0.513228,0.290179,0.0321832,0
0.514161,0.287775,0.032201,0
0.513234,0.284363,0.0321128,0
0.50983,0.279645,0.0318837,0
0.510627,0.277193,0.0318944,0
0.512068,0.275077,0.0319417,0
0.51046,0.271374,0.031816,0
0.511622,0.269114,0.0318478,0
0.510692,0.265789,0.0317611,0
0.509138,0.262168,0.0316395,0
0.510267,0.259901,0.0316699,0
0.508414,0.256166,0.031532,0
0.51205,0.25512,0.0317041,0
0.507959,0.250337,0.0314407,0
0.507622,0.247384,0.0313893,0
0.509785,0.245614,0.0314786,0
0.510853,0.243319,0.0315064,0
0.51096,0.24058,0.0314804,0
0.51077,0.237711,0.031438,0
0.511195,0.235126,0.0314303,0
0.511374,0.232435,0.0314089,0
0.512391,0.230114,0.0314346,0
0.510642,0.226596,0.0313061,0
0.510724,0.223883,0.03128,0
0.511296,0.221381,0.0312815,0
0.51227,0.219047,0.0313055,0
0.511789,0.216112,0.0312488,0
0.512342,0.213607,0.0312498,0
0.513285,0.211257,0.0312726,0
0.514514,0.209017,0.0313113,0
0.513519,0.205905,0.0312271,0
0.512496,0.2028,0.0311418,0
0.513395,0.200437,0.0311629,0
0.513337,0.197715,0.0311314,0
0.512343,0.194655,0.0310486,0
0.513207,0.192284,0.0310684,0
0.512914,0.189497,0.0310247,0
0.515619,0.187775,0.0311461,0
0.515877,0.185181,0.0311331,0
0.515921,0.182517,0.0311087,0
0.515675,0.17976,0.0310685,0
0.516477,0.177359,0.0310861,0
0.517268,0.174952,0.0311032,0
0.513166,0.170968,0.0308532,0
0.5135,0.168436,0.030846,0
0.513891,0.165923,0.0308422,0
0.509231,0.161863,0.0305634,0
0.506952,0.158573,0.0304149,0
0.477438,0.147239,0.0287856,0
0.433087,0.131885,0.026353,0
0.360726,0.108961,0.0224039,0
0.313869,0.0939416,0.0198452,0
0.294649,0.0870303,0.0187891,0
0.286449,0.0833036,0.0183316,0
0.286317,0.0818103,0.0183117,0
0.284045,0.0797615,0.0181762,0
0.281088,0.077562,0.0180041,0
0.27719,0.0751582,0.0177816,0
0.270656,0.0721453,0.0174173,0
0.271094,0.0708834,0.0174296,0
0.274265,0.0702659,0.0175892,0
0.275024,0.0690608,0.0176189,0
0.273649,0.0673665,0.0175339,0
0.269314,0.0650312,0.0172901,0
0.267931,0.0633808,0.0172052,0
0.267132,0.0618699,0.017152,0
0.268475,0.0608125,0.017214,0
0.266876,0.0591489,0.0171182,0
0.26923,0.058283,0.0172345,0
0.269136,0.0569249,0.0172198,0
0.270291,0.0558038,0.017272,0
0.270537,0.0545071,0.0172757,0
0.271578,0.0533512,0.017322,0
0.275676,0.0527161,0.0175316,0
0.277993,0.0517435,0.0176461,0
0.278214,0.0504076,0.0176488,0
0.280781,0.0494432,0.0177767,0
0.28202,0.0482514,0.0178338,0
0.302631,0.0499348,0.0189224,0
0.319397,0.0508672,0.0198053,0
0.375024,0.0570548,0.0227541,0
0.482186,0.0696432,0.0284389,0
0.512273,0.0712061,0.0300235,0
0.510352,0.0684839,0.0299074,0
0.506847,0.065592,0.0297075,0
0.506775,0.063132,0.0296903,0
0.506617,0.0606655,0.0296688,0
0.506259,0.0581812,0.029637,0
0.506509,0.0557639,0.0296377,0
0.508898,0.0535522,0.029752,0
0.509127,0.0511218,0.0297521,0
0.50011,0.0478887,0.0292634,0
0.495437,0.0450993,0.0290051,0
0.481575,0.0416458,0.0282617,0
0.478267,0.0390909,0.0280768,0
0.450145,0.0348868,0.0265817,0
0.411881,0.0303115,0.0245527,0
0.341798,0.024245,0.0208461,0
0.290463,0.0198477,0.0181315,0
0.275758,0.0177259,0.0173507,0
0.274459,0.0163351,0.0172773,0
0.271288,0.0148833,0.0171055,0
0.270386,0.0135407,0.0170535,0
0.270089,0.012225,0.0170335,0
0.270125,0.010921,0.0170312,0
0.265,0.00951138,0.0167574,0
0.263234,0.00820333,0.0166607,0
0.263251,0.00693181,0.0166581,0
0.263178,0.00565977,0.0166508,0
0.263183,0.00438869,0.0166478,0
0.263029,0.00311817,0.0166366,0
0.263022,0.00184802,0.0166333,0
0.261949,0.000591397,0.0165741,0
0.261142,-0.000659719,0.0165291,0
0.255673,-0.00180045,0.0162393,0
0.255048,-0.00301935,0.0162042,0
0.253046,-0.0041891,0.016097,0
0.251315,-0.00534994,0.0160041,0
0.25076,-0.00654284,0.0159732,0
0.251216,-0.00777692,0.0159956,0
0.250709,-0.00896709,0.0159675,0
0.250645,-0.0101773,0.0159628,0
0.250409,-0.0113769,0.0159493,0
0.248565,-0.0124709,0.0158515,0
0.248476,-0.0136695,0.015846,0
0.247085,-0.0147714,0.0157722,0
0.246994,-0.0159631,0.0157669,0
0.246861,-0.0171511,0.0157595,0
0.248078,-0.0184576,0.0158231,0
0.249861,-0.0198289,0.0159165,0
0.251238,-0.0211783,0.0159888,0
0.25199,-0.0224773,0.0160284,0
0.262281,-0.0248076,0.0165686,0
0.293442,-0.0295752,0.0182042,0
0.39089,-0.0423827,0.0233185,0
0.511086,-0.0588853,0.0296272,0
0.563132,-0.0679259,0.0323605,0
0.555228,-0.0696053,0.0319479,0
0.514646,-0.0667713,0.0298203,0
0.513574,-0.0691091,0.0297667,0
0.514382,-0.0717124,0.0298121,0
0.516437,-0.0745133,0.0299232,0
0.513555,-0.0765709,0.0297755,0
0.515819,-0.0794256,0.0298982,0
0.513731,-0.0815884,0.0297926,0
0.513326,-0.0840189,0.0297757,0
0.51291,-0.0864463,0.0297585,0
0.513679,-0.0890849,0.0298039,0
0.516574,-0.0921245,0.0299613,0
0.516847,-0.0947005,0.0299813,0
0.5166,-0.0971813,0.0299741,0
0.515478,-0.0994893,0.0299212,0
0.514317,-0.101782,0.0298665,0
0.512633,-0.103957,0.0297845,0
0.512126,-0.106371,0.0297647,0
0.51501,-0.109521,0.0299238,0
0.514825,-0.11202,0.0299215,0
0.514854,-0.114569,0.0299308,0
0.514299,-0.116986,0.0299096,0
0.514473,-0.119574,0.029927,0
0.513314,-0.121845,0.0298745,0
0.51137,-0.123915,0.0297807,0
0.510773,-0.126309,0.0297583,0
0.510238,-0.128717,0.0297394,0
0.510109,-0.13123,0.0297421,0
0.51088,-0.133986,0.0297926,0
0.511021,-0.136583,0.0298101,0
0.510666,-0.139048,0.0298017,0
0.510447,-0.141552,0.0298008,0
0.51153,-0.144432,0.0298689,0
