0.550301,0.0500943,0.140925,185.679
0.543237,0.0468626,0.139134,182.295
0.479699,0.0395619,0.123297,174.642
0.341289,0.0277475,0.088849,174.642
0.276285,0.0219391,0.0726684,239.187
0.263565,0.0198336,0.0694921,301.425
0.258744,0.018278,0.0682811,345.492
0.257503,0.0169455,0.0679606,373.135
0.255992,0.0156135,0.0675737,388.403
0.249561,0.0141013,0.0659656,402.53
0.249687,0.0128799,0.0659874,408.196
0.249727,0.011655,0.0659882,406.115
0.249761,0.01043,0.0659884,403.218
0.24941,0.009197,0.0658938,393.862
0.249433,0.00797352,0.0658925,390.473
0.249285,0.00674818,0.0658496,335.86
0.251362,0.00553801,0.0663596,277.802
0.257065,0.00431279,0.0677701,200.877
0.27566,0.00298807,0.0723804,136.964
0.297207,0.00146085,0.0777232,73.7016
0.337659,-0.000519791,0.0877575,58.0555
0.412944,-0.00350997,0.106435,41.4766
0.537461,-0.00833635,0.137327,58.0555
0.541191,-0.0110418,0.138252,83.12
0.541118,-0.0136607,0.138233,138.661
0.541482,-0.0162954,0.138325,167.105
0.543921,-0.0190209,0.138934,173.49
0.544532,-0.0216851,0.139089,179.909
0.546798,-0.0244408,0.139658,180.762
0.546662,-0.0270841,0.139631,186.698
0.547198,-0.0297678,0.139773,187.406
0.547038,-0.0324118,0.139744,188.074
0.547676,-0.0351116,0.139914,185.093
0.548127,-0.0378045,0.14004,183.457
0.548961,-0.0405336,0.140261,180.766
0.54859,-0.0431695,0.140186,181.005
0.548368,-0.0458166,0.140149,179.261
0.546914,-0.0483465,0.139807,177.364
0.546668,-0.0509839,0.139766,177.809
0.545216,-0.0534948,0.139428,181.024
0.54651,-0.0562929,0.139773,183.218
0.545578,-0.0588517,0.139567,180.793
0.547511,-0.0617435,0.140073,180.338
0.545798,-0.0642054,0.139676,178.72
0.546885,-0.0670122,0.139975,180.646
0.547202,-0.0697291,0.140085,180.822
0.54503,-0.0721074,0.139577,180.822
0.544675,-0.0747268,0.139523,180.509
0.545687,-0.0775471,0.13981,178.741
0.547951,-0.0805706,0.14041,177.177
0.547558,-0.0832002,0.14035,174.02
0.547154,-0.0858267,0.140289,174.02
0.548213,-0.0886967,0.140594,178.926
0.550415,-0.0917764,0.141185,178.926
0.549971,-0.0944123,0.141119,176.464
0.547388,-0.0966575,0.14052,172.622
0.546922,-0.0992761,0.140451,172.622
0.54702,-0.102001,0.140523,176.751
0.547848,-0.104874,0.140779,174.015
0.548783,-0.107779,0.141064,174.015
0.548269,-0.110398,0.140988,173.118
0.547871,-0.11304,0.140942,173.744
0.548237,-0.115847,0.141089,174.673
0.548232,-0.118579,0.141144,176.436
0.547669,-0.121188,0.141061,176.185
0.548875,-0.124204,0.141422,176.185
0.546408,-0.126369,0.140865,176.287
0.546458,-0.129119,0.140939,176.287
0.545849,-0.131712,0.14085,176.038
0.547609,-0.134898,0.141356,174.021
0.54763,-0.13766,0.141427,171.722
0.547829,-0.140473,0.141544,172.13
0.547171,-0.143064,0.141448,172.618
0.547111,-0.145814,0.141502,173.176
0.546127,-0.148314,0.141326,173.194
0.548538,-0.151762,0.142005,175.286
0.545963,-0.153813,0.141431,170.697
0.547114,-0.156926,0.141796,168.427
0.546711,-0.159596,0.141771,168.503
0.546944,-0.162458,0.141907,172.408
0.547263,-0.165354,0.142067,171.912
0.546162,-0.167816,0.141869,171.912
0.545388,-0.170374,0.141755,172.375
0.544731,-0.172968,0.141671,174.76
0.545332,-0.17597,0.141907,174.307
0.545735,-0.178918,0.142094,174.307
0.544915,-0.181464,0.141973,174.307
0.547982,-0.185335,0.142837,175.069
0.547424,-0.187985,0.142785,173.464
0.546568,-0.190529,0.142658,172.092
0.545373,-0.19295,0.142446,170.069
0.544484,-0.195474,0.142313,171.705
0.54361,-0.198,0.142184,180.718
0.544063,-0.201017,0.142394,185.551
0.543397,-0.203622,0.14232,186.788
0.542661,-0.206198,0.142229,186.788
0.543506,-0.209387,0.142542,182.874
0.542781,-0.211972,0.142456,182.798
0.542279,-0.214644,0.142428,174.861
0.541439,-0.217181,0.142314,177.023
0.54182,-0.220214,0.142514,181.44
0.539488,-0.222133,0.14202,182.837
0.539846,-0.225162,0.142216,179.843
0.540348,-0.228262,0.142449,173.188
0.539335,-0.230722,0.142296,171.99
0.539496,-0.233688,0.142444,171.99
0.538459,-0.236134,0.142286,172.702
0.537799,-0.238744,0.142226,174.571
0.536786,-0.241193,0.142075,180.619
0.53818,-0.244738,0.142544,174.832
0.538447,-0.247783,0.142725,174.832
0.539941,-0.251412,0.143223,181.689
0.538843,-0.253836,0.143054,181.689
0.539303,-0.257001,0.143288,181.689
0.539221,-0.259915,0.143383,179.371
0.538455,-0.262499,0.143302,179.371
0.537654,-0.265065,0.143212,179.371
0.5373,-0.267852,0.143239,179.243
0.538081,-0.271216,0.143561,176.707
0.538957,-0.274644,0.143909,174.691
0.536342,-0.276284,0.143352,176.067
0.536411,-0.279304,0.143492,176.558
0.53522,-0.281666,0.143305,176.558
0.535717,-0.284923,0.143558,172.664
0.534507,-0.287272,0.143367,172.389
0.533753,-0.289862,0.143295,181.403
0.533257,-0.292593,0.143292,182.404
0.535559,-0.29688,0.14402,164.798
0.556027,0.329801,0.149143,201.102
0.558879,0.328234,0.149733,203.177
0.559507,0.325378,0.149744,203.268
0.559665,0.322257,0.149633,202.563
0.556255,0.317155,0.148595,200.416
0.556525,0.314128,0.148516,204.301
0.556016,0.310681,0.148235,204.884
0.555803,0.307407,0.148032,204.301
0.556822,0.304801,0.148149,197.31
0.551863,0.299029,0.146721,205
0.550779,0.295348,0.146297,211.094
0.550516,0.292112,0.146086,205
0.553496,0.290547,0.146713,198.347
0.554145,0.287776,0.146739,193.296
0.55519,0.285202,0.146867,195.314
0.555159,0.282091,0.146719,192.077
0.556351,0.279587,0.146886,190.384
0.557339,0.276979,0.147001,190.078
0.555122,0.272831,0.146295,184.495
0.555349,0.269872,0.146217,184.495
0.556497,0.267349,0.146376,181.394
0.556755,0.264408,0.146307,180.882
0.556404,0.261194,0.146085,180.288
0.554143,0.257126,0.145376,184.388
0.555243,0.254591,0.145526,184.714
0.556334,0.252047,0.145674,184.714
0.555407,0.248619,0.145309,186.186
0.555534,0.24566,0.145214,188.851
0.554762,0.242325,0.144891,188.851
0.554933,0.239401,0.14481,195.736
0.55494,0.236414,0.144687,193.386
0.554791,0.23337,0.144527,193.189
0.55653,0.231095,0.144845,190.336
0.556263,0.22801,0.144656,187.581
0.55687,0.225277,0.14469,189.807
0.555632,0.221828,0.144259,189.807
0.555399,0.218784,0.144082,189.39
0.557774,0.216732,0.144565,187.532
0.56052,0.2148,0.145141,187.532
0.561361,0.212146,0.145238,189.493
0.558566,0.208174,0.144422,187.973
0.556974,0.204666,0.14391,187.023
0.557123,0.201793,0.143837,187.388
0.55322,0.197521,0.142749,188.002
0.560924,0.197253,0.144572,187.388
0.561214,0.194421,0.144538,186.287
0.560264,0.191182,0.144194,184.945
0.55416,0.186282,0.142563,183.141
0.554979,0.183667,0.142665,182.969
0.5556,0.180987,0.142719,177.393
0.556397,0.17836,0.142818,182.177
0.557182,0.175727,0.142915,182.177
0.556622,0.172688,0.142677,182.177
0.557568,0.170104,0.142816,180.443
0.558134,0.167405,0.142862,182.545
0.55497,0.163644,0.141981,185.689
0.555692,0.161007,0.142069,186.038
0.555681,0.158166,0.141975,187.073
0.55638,0.155521,0.142059,186.626
0.55541,0.152433,0.14173,186.626
0.558612,0.150441,0.142437,185.467
0.559277,0.147776,0.142515,185.467
0.555398,0.143976,0.14147,184.989
0.556035,0.141323,0.141545,181.578
0.556659,0.138666,0.141618,179.372
0.55704,0.135949,0.141632,180.345
0.554641,0.132595,0.140961,184.981
0.555998,0.130112,0.141218,188.036
0.558537,0.127879,0.141769,185.82
0.558072,0.124981,0.141579,185.82
0.556476,0.121853,0.141112,180.388
0.556248,0.119026,0.140984,179.189
0.555631,0.116127,0.140762,178.967
0.552939,0.112834,0.14003,178.006
0.553437,0.110177,0.140086,178.006
0.552977,0.107341,0.139907,179.121
0.552611,0.104529,0.139752,182.26
0.553444,0.101935,0.139894,181.345
0.555617,0.0995645,0.140366,180.138
0.556489,0.0969604,0.140519,179.67
0.556354,0.0941894,0.140427,180.058
0.553553,0.0910081,0.139683,180.443
0.555038,0.088503,0.139991,183.598
0.554289,0.0856606,0.139752,183.598
0.551778,0.0825798,0.139084,181.886
0.552138,0.079917,0.139121,176.886
0.551904,0.0771753,0.139014,174.905
0.553012,0.0746082,0.139236,175
0.55304,0.0719014,0.139196,175
0.552487,0.0691291,0.139015,179.068
0.550333,0.0661852,0.138444,179.068
0.552132,0.0636875,0.138841,179.068
0.552991,0.0610785,0.139009,179.095
0.552855,0.0583663,0.138936,181.836
0.552794,0.0556644,0.138883,185.679
0.551278,0.0528374,0.138476,187.02
0.550932,0.0501237,0.138356,187.02
0.545885,0.0470481,0.137091,183.664
0.499765,0.0410142,0.125813,171.784
0.389592,0.0310418,0.0989256,171.784
0.27906,0.022107,0.071964,212.259
0.266592,0.0200041,0.0689113,281.094
0.263647,0.0185361,0.0681808,335.921
0.257107,0.01692,0.0665756,368.995
0.253613,0.0155025,0.0657135,385.072
0.248844,0.0140685,0.0645417,408.196
0.248889,0.0128483,0.0645432,412.508
0.250017,0.0116606,0.0648089,414.774
0.25005,0.0104348,0.064809,426.134
0.251108,0.00922998,0.0650588,431.629
0.250289,0.00798586,0.0648528,431.629
0.250306,0.00675889,0.0648507,409.739
0.251653,0.00554006,0.065173,364.92
0.252818,0.00430823,0.0654516,309.845
0.257068,0.00305461,0.0664814,254.989
0.265884,0.0017226,0.0686224,187.196
0.276178,0.000286923,0.0711235,129.798
0.303231,-0.00154636,0.0777015,71.2946
0.353621,-0.00416683,0.0899563,71.2946
0.40433,-0.00727864,0.102289,50.6326
0.504403,-0.012466,0.12663,79.2857
0.539585,-0.0162116,0.135189,79.2857
0.542003,-0.0189256,0.13578,149.14
0.543104,-0.0216019,0.136052,173.49
0.54431,-0.0242949,0.136351,179.599
0.544897,-0.0269653,0.136501,186.165
0.546008,-0.0296742,0.13678,186.698
0.545857,-0.0323116,0.136753,188.074
0.546422,-0.0349991,0.136902,185.165
0.548061,-0.037774,0.137314,185.165
0.548672,-0.0404834,0.137477,185.165
0.548633,-0.0431447,0.137483,185.18
0.548995,-0.045843,0.137589,183.26
0.546343,-0.0482611,0.136962,181.005
0.547078,-0.0509919,0.137161,183.26
0.54682,-0.0536278,0.13712,183.411
0.547135,-0.0563254,0.13722,184.169
0.546416,-0.0589102,0.13707,184.683
0.549175,-0.0619024,0.137768,184.799
0.547106,-0.064327,0.137291,184.045
0.546103,-0.0668705,0.137075,181.496
0.545432,-0.0694505,0.136942,181.496
0.545077,-0.0720699,0.136887,181.496
0.545125,-0.0747457,0.136932,183.901
0.547456,-0.0777613,0.137535,182.075
0.547075,-0.0803884,0.137478,178.741
0.546683,-0.0830125,0.13742,176.17
0.547778,-0.0858766,0.137726,178.404
0.54945,-0.0888506,0.138175,178.926
0.551043,-0.0918299,0.138605,180.16
0.548466,-0.0940902,0.138019,176.976
0.548011,-0.096714,0.137952,176.976
0.547545,-0.0993342,0.137884,176.751
0.548963,-0.102314,0.138278,180.523
0.548472,-0.104935,0.138206,178.609
0.549331,-0.107827,0.138467,177.181
0.548526,-0.110387,0.138321,174.015
0.547061,-0.112804,0.138015,173.465
0.548637,-0.115867,0.138455,174.673
0.548086,-0.118478,0.138375,177.322
0.548292,-0.121259,0.138483,179.834
0.547615,-0.123842,0.138375,177.572
0.547677,-0.126596,0.138449,177.624
0.548087,-0.129438,0.138611,177.624
0.547476,-0.132038,0.138523,178.233
0.547776,-0.134863,0.13866,179.973
0.547596,-0.137574,0.13868,179.973
0.548451,-0.140556,0.138957,174.305
0.546015,-0.142676,0.138424,174.305
0.545347,-0.145256,0.138328,176.913
0.547044,-0.148484,0.138816,176.913
0.550251,-0.152158,0.139678,176.026
0.548919,-0.154572,0.139422,175.881
0.547733,-0.15702,0.139203,175.881
0.545689,-0.159206,0.138773,172.93
0.546589,-0.162263,0.139072,172.93
0.54681,-0.165125,0.139204,172.408
0.547077,-0.168009,0.139349,172.375
0.54512,-0.170197,0.138944,172.375
0.545346,-0.173072,0.139081,174.76
0.54455,-0.17562,0.138966,177.292
0.544264,-0.178334,0.138978,179.306
0.543522,-0.180898,0.138879,179.306
0.544652,-0.184098,0.139245,181.692
0.547223,-0.187815,0.139971,178.464
0.546366,-0.190357,0.139846,175.069
0.545986,-0.193066,0.139841,173.464
0.545108,-0.195597,0.139713,174.108
0.54422,-0.19812,0.139583,182.227
0.542702,-0.200404,0.139297,185.576
0.542856,-0.203311,0.139429,188.864
0.543269,-0.206323,0.139627,191.944
0.544041,-0.209485,0.139916,190.537
0.543099,-0.211987,0.139778,188.004
0.542591,-0.214657,0.139749,185.971
0.540668,-0.216757,0.139367,185.366
0.539742,-0.219251,0.139235,185.366
0.53779,-0.221315,0.138846,185.776
0.536803,-0.22377,0.1387,185.776
0.537465,-0.226921,0.138968,180.224
0.53703,-0.229613,0.138963,173.188
0.539829,-0.233715,0.139771,174.571
0.53944,-0.236448,0.139779,179.213
0.538396,-0.238891,0.139623,179.467
0.537344,-0.241325,0.139466,183.877
0.538776,-0.244889,0.139936,183.877
0.539043,-0.247936,0.140113,189.467
0.539151,-0.250918,0.140252,189.271
0.538055,-0.253338,0.140086,184.462
0.537747,-0.25613,0.140121,183.24
0.537414,-0.258913,0.14015,182.612
0.538686,-0.262484,0.140588,183.24
0.539037,-0.26562,0.140792,180.275
0.538001,-0.268073,0.140646,184.486
0.538149,-0.27112,0.140801,179.55
0.537504,-0.27377,0.140755,176.707
0.536329,-0.276145,0.140575,176.707
0.535914,-0.278912,0.140589,181.4
0.534722,-0.28127,0.140406,181.4
0.536071,-0.284977,0.140871,183.901
0.53486,-0.287327,0.140684,184.353
0.533683,-0.289688,0.140506,188.507
0.533106,-0.292374,0.140481,187.11
0.532601,-0.295099,0.140476,187.11
0.558025,0.330822,0.146742,182.078
0.559666,0.328548,0.14701,203.177
0.560024,0.325534,0.146951,203.268
0.556191,0.320167,0.145824,203.268
0.556311,0.317052,0.145707,200.441
0.557123,0.314325,0.145767,204.301
0.556583,0.310858,0.145483,204.884
0.555993,0.307378,0.145188,204.884
0.556344,0.304415,0.145133,204.884
0.552147,0.29905,0.143926,210.234
0.550489,0.295069,0.143365,211.094
0.551113,0.292294,0.143382,198.347
0.552953,0.290142,0.143708,193.23
0.553437,0.287291,0.143691,193.111
0.55412,0.284541,0.143725,193.131
0.553467,0.281129,0.143423,193.111
0.554656,0.278633,0.143586,195.314
0.55481,0.275631,0.14349,190.384
0.552517,0.271462,0.142779,188.614
0.553671,0.268957,0.142936,188.385
0.554546,0.266316,0.143023,186.357
0.554054,0.26304,0.142768,186.357
0.552751,0.259406,0.142312,185.488
0.552628,0.256326,0.142152,185.488
0.553726,0.253799,0.142299,185.488
0.553762,0.250798,0.14218,185.792
0.555378,0.248493,0.142457,187.919
0.554317,0.245025,0.142068,193.101
0.554501,0.242104,0.141989,192.201
0.553595,0.23873,0.141641,195.386
0.555553,0.236559,0.142006,193.189
0.555649,0.233612,0.141909,193.159
0.557986,0.231576,0.142369,191.78
0.55786,0.22854,0.142218,190.599
0.558852,0.225951,0.142346,190.599
0.559835,0.223354,0.142472,190.35
0.558976,0.22005,0.142143,189.39
0.560722,0.217743,0.14246,187.505
0.561142,0.21493,0.14245,184.29
0.555769,0.209995,0.141012,187.532
0.555453,0.20695,0.140823,184.257
0.556358,0.20435,0.140937,183.658
0.555279,0.20105,0.140563,184.506
0.553836,0.19764,0.140102,187.388
0.554703,0.195039,0.140209,187.388
0.552813,0.191509,0.139641,187.551
0.550681,0.187924,0.139015,187.551
0.549258,0.184598,0.138565,187.551
0.548922,0.18164,0.138383,187.887
0.554225,0.180467,0.139583,189.232
0.554698,0.177748,0.1396,189.232
0.555481,0.175124,0.139695,190.937
0.55483,0.172068,0.13944,183.87
0.558191,0.170206,0.140166,182.545
0.558943,0.167559,0.140255,182.545
0.555954,0.163845,0.139435,186.038
0.556314,0.161103,0.139432,187.073
0.552905,0.157328,0.138513,188.396
0.554126,0.154839,0.138722,187.519
0.555254,0.152317,0.13891,188.396
0.560332,0.150814,0.140058,186.626
0.560999,0.148142,0.140135,187.785
0.554415,0.143662,0.138454,186.817
0.555051,0.141014,0.138527,183.909
0.557051,0.138692,0.138932,179.372
0.556478,0.135751,0.138714,179.372
0.556357,0.132924,0.138607,183.638
0.556622,0.130188,0.138595,185.027
0.557333,0.127553,0.138692,183.638
0.557884,0.124879,0.138752,182.796
0.5571,0.121925,0.13849,181.092
0.556941,0.11911,0.138381,179.059
0.55695,0.116334,0.138314,179.059
0.553825,0.112952,0.137493,178.46
0.553113,0.110062,0.137255,178.006
0.553598,0.107403,0.137307,178.46
0.553189,0.104583,0.137145,181.241
0.555494,0.102245,0.137638,181.345
0.556566,0.0996777,0.137835,181.345
0.556892,0.0969801,0.137854,180.138
0.552631,0.0935468,0.136771,180.138
0.553041,0.0908847,0.136813,183.598
0.552907,0.0881395,0.136726,187.2
0.555807,0.0858407,0.137369,187.2
0.552398,0.0826277,0.136498,186.49
0.552949,0.0799892,0.13658,180.001
0.553075,0.0772923,0.136561,176.886
0.555094,0.0748358,0.136997,176.426
0.553661,0.071943,0.136607,176.418
0.550864,0.0689073,0.135892,182.128
0.550951,0.0662234,0.135869,182.21
0.554129,0.0638715,0.136588,182.21
0.554779,0.0612328,0.136702,184.921
0.554256,0.0584759,0.136538,187.426
0.553189,0.0556756,0.136245,188.104
0.551843,0.052863,0.135886,188.889
0.551725,0.050167,0.135823,188.889
0.551613,0.0474743,0.135763,189.49
0.525999,0.0429171,0.12961,177.752
0.440005,0.0344774,0.109037,171.784
0.315666,0.0244267,0.0793151,185.345
0.272974,0.0203719,0.0691041,261.573
0.263947,0.0185456,0.0669358,319.519
0.2574,0.0169286,0.0653609,355.515
0.254816,0.0155508,0.0647332,376.516
0.252683,0.0142162,0.0642139,398.269
0.250261,0.0128924,0.0636267,413.942
0.250301,0.0116661,0.0636274,426.134
0.247998,0.0103807,0.06307,433.963
0.251394,0.00923414,0.0638725,460.449
0.254006,0.00804307,0.0644887,460.449
0.253895,0.00679759,0.0644561,456.729
0.25194,0.00554213,0.0639843,429.289
0.251945,0.00430808,0.0639809,382.637
0.253613,0.00306832,0.0643743,344.963
0.257649,0.00179309,0.0653331,287.764
0.259979,0.00050152,0.0658857,236.472
0.261494,-0.000797834,0.0662447,168.32
0.275669,-0.00239801,0.0696217,116.805
0.29393,-0.00424592,0.0739736,81.0553
0.33102,-0.00687472,0.0828139,79.2857
0.391295,-0.0107159,0.0971813,61.9091
0.503747,-0.0173132,0.123987,79.2857
0.542983,-0.0215799,0.133343,81.423
0.542942,-0.0242068,0.133339,121.523
0.542267,-0.0267984,0.133185,167.086
0.542121,-0.0294166,0.133158,185.093
0.543338,-0.0321239,0.133458,185.093
0.546523,-0.0349826,0.134229,185.093
0.54685,-0.0376577,0.13432,187.188
0.548478,-0.0404413,0.134722,188.807
0.5484,-0.0430969,0.134719,188.807
0.54961,-0.0458687,0.135025,184.748
0.546537,-0.0482487,0.13431,181.005
0.547692,-0.0510206,0.134605,183.411
0.546432,-0.0535537,0.134326,184.169
0.546161,-0.0561843,0.134284,187.741
0.545879,-0.0588126,0.13424,187.741
0.545869,-0.0614723,0.134264,186.871
0.545563,-0.0640973,0.134217,184.474
0.545244,-0.0667197,0.134169,182.656
0.546039,-0.0694893,0.134389,184.045
0.545696,-0.0721119,0.134337,185.764
0.549394,-0.0753103,0.135254,186.738
0.549025,-0.0779465,0.135199,186.58
0.548643,-0.0805797,0.135143,186.58
0.547295,-0.0830597,0.134858,182.075
0.54791,-0.0858475,0.135043,186.723
0.550065,-0.0889012,0.135598,186.135
0.550559,-0.0916932,0.135757,186.135
0.550115,-0.094327,0.135693,185.959
0.54966,-0.0969573,0.135628,181.272
0.547757,-0.0993162,0.135217,180.523
0.547279,-0.101932,0.135148,182.215
0.547062,-0.104598,0.135144,180.515
0.548055,-0.107509,0.135431,178.609
0.548198,-0.110257,0.135516,174.673
0.547015,-0.11273,0.135283,173.744
0.547133,-0.115476,0.135364,177.302
0.545659,-0.117875,0.135064,179.151
0.548358,-0.121206,0.135768,180.906
0.547184,-0.123673,0.135543,181.243
0.547639,-0.126516,0.135711,180.874
0.549019,-0.12959,0.136102,180.307
0.54901,-0.132341,0.136161,180.752
0.549682,-0.135266,0.136385,182.338
0.549045,-0.137868,0.136295,182.338
0.548397,-0.140464,0.136204,179.973
0.545682,-0.142509,0.135615,179.43
0.546056,-0.145368,0.135772,179.739
0.550371,-0.14932,0.136883,180.948
0.550862,-0.152247,0.137072,179.739
0.549383,-0.154621,0.136785,177.196
0.547144,-0.156763,0.136316,176.867
0.546295,-0.159299,0.136184,172.93
0.545555,-0.161864,0.13608,172.93
0.545552,-0.164651,0.136155,172.93
0.546452,-0.167724,0.13645,172.408
0.544264,-0.169836,0.135997,172.375
0.54612,-0.173228,0.136527,173.41
0.54794,-0.176632,0.13705,177.292
0.547128,-0.179188,0.136934,178.867
0.544123,-0.181004,0.136287,182.05
0.545919,-0.184434,0.136808,182.512
0.548435,-0.188136,0.137506,181.692
0.546969,-0.190469,0.137236,181.023
0.546588,-0.19318,0.137231,181.023
0.545058,-0.195477,0.136946,181.87
0.544197,-0.198009,0.136826,184.183
0.542848,-0.200355,0.136587,185.576
0.542391,-0.20303,0.136567,193.171
0.54304,-0.20613,0.136819,193.377
0.542457,-0.208764,0.13677,193.171
0.541517,-0.211257,0.136635,190.537
0.542223,-0.214402,0.136904,190.588
0.53953,-0.216188,0.13634,188.84
0.540289,-0.219364,0.136625,186.72
0.539352,-0.221851,0.136493,186.72
0.538362,-0.224312,0.13635,186.72
0.538265,-0.227147,0.136427,184.504
0.537616,-0.229751,0.136368,182.763
0.537069,-0.232398,0.136336,182.763
0.536039,-0.234833,0.136186,182.832
0.537742,-0.238481,0.136711,183.877
0.537028,-0.241064,0.13664,186.999
0.536095,-0.243545,0.136515,188.141
0.538285,-0.247465,0.137165,189.884
0.53953,-0.250973,0.137582,189.271
0.538432,-0.253394,0.13742,184.462
0.537326,-0.255805,0.137256,184.071
0.537213,-0.258691,0.137339,183.349
0.537404,-0.261732,0.137499,182.612
0.539618,-0.265781,0.138163,179.371
0.538469,-0.268179,0.137991,179.55
0.536514,-0.270165,0.137619,179.55
0.535095,-0.27241,0.137381,184.486
0.534398,-0.275019,0.137324,184.767
0.535553,-0.278593,0.137729,192.891
0.534362,-0.280949,0.13755,192.891
0.535059,-0.284306,0.137843,201.15
0.535431,-0.287501,0.138055,196.768
0.534252,-0.289864,0.13788,199.022
0.533816,-0.29263,0.137892,189.401
0.53258,-0.294953,0.137704,193.731
0.559976,0.331817,0.144312,184.48
0.560783,0.329054,0.144365,205.88
0.555861,0.323036,0.142987,207.807
0.556776,0.320364,0.143069,205.88
0.55537,0.316397,0.142573,204.774
0.55668,0.313949,0.142756,220.991
0.557128,0.311025,0.142723,211.386
0.556581,0.307566,0.142445,206.378
0.553482,0.302758,0.141533,205.149
0.552733,0.299233,0.141206,204.702
0.55196,0.295713,0.140876,197.84
0.553283,0.293292,0.141065,190.461
0.553541,0.290319,0.140992,192.384
0.553664,0.287283,0.140886,192.384
0.55286,0.283787,0.140551,193.131
0.553617,0.281081,0.140603,191.469
0.552804,0.277606,0.140269,190.269
0.553981,0.27511,0.140427,186.753
0.551315,0.270768,0.139639,186.699
0.552372,0.268224,0.139768,188.385
0.550899,0.264493,0.139277,188.385
0.550193,0.261139,0.138975,189.519
0.552114,0.259,0.139319,186.679
0.553223,0.256481,0.139464,185.553
0.55413,0.253866,0.139561,184.714
0.554288,0.250918,0.139474,184.714
0.553643,0.247626,0.139193,186.186
0.554916,0.245173,0.139381,192.201
0.554764,0.242106,0.139222,192.201
0.554194,0.238874,0.138962,193.147
0.555227,0.236318,0.139094,188.387
0.556251,0.233753,0.139224,189.812
0.558591,0.231715,0.139675,189.812
0.558465,0.228677,0.139527,190.599
0.559459,0.226086,0.139652,191.78
0.560443,0.223488,0.139776,191.436
0.559584,0.220181,0.139453,190.35
0.561929,0.218098,0.139908,187.651
0.561494,0.214962,0.139691,184.257
0.552978,0.208875,0.137523,189.282
0.553484,0.206143,0.137537,190.402
0.554795,0.203699,0.137746,190.402
0.555279,0.200956,0.137756,183.556
0.553765,0.197524,0.137287,187.388
0.554498,0.194878,0.137359,187.388
0.552813,0.19142,0.136852,193.378
0.553655,0.188819,0.136953,193.378
0.553207,0.185796,0.136746,187.551
0.548158,0.18131,0.135436,193.156
0.55451,0.180472,0.136862,191.375
0.550571,0.176386,0.135822,191.398
0.551349,0.173783,0.135914,191.398
0.550296,0.170628,0.135569,191.398
0.549965,0.167703,0.135398,190.937
0.555465,0.166473,0.136621,184.417
0.5562,0.163838,0.136706,186.457
0.556924,0.161197,0.13679,187.073
0.553513,0.157419,0.135888,191.045
0.554209,0.154787,0.135968,191.045
0.555355,0.152272,0.136156,191.707
0.560832,0.150872,0.137376,186.817
0.5615,0.148199,0.137451,187.785
0.555025,0.143745,0.13583,186.817
0.550607,0.139862,0.134701,187.785
0.555756,0.138316,0.135845,182.486
0.55635,0.135656,0.135909,188.036
0.55695,0.132996,0.135975,186.638
0.556462,0.13009,0.135784,186.638
0.557946,0.127626,0.136062,185.027
0.558376,0.124925,0.136092,185.814
0.557713,0.121995,0.135864,185.814
0.55403,0.118458,0.134923,180.388
0.554554,0.115801,0.134979,180.307
0.556334,0.113386,0.135333,179.125
0.552841,0.109957,0.134443,180.388
0.554208,0.107465,0.134702,180.388
0.553799,0.104643,0.134543,181.241
0.556763,0.102418,0.135181,180.524
0.557214,0.0997406,0.135228,180.524
0.557506,0.0970355,0.135238,180.524
0.552708,0.0935149,0.134051,183.17
0.55365,0.0909365,0.134217,185.63
0.554737,0.0883734,0.134419,187.745
0.555524,0.085759,0.134551,188.56
0.555898,0.0830818,0.134587,187.423
0.555495,0.080298,0.134443,186.765
0.553907,0.0773654,0.134021,179.08
0.554244,0.0746937,0.134053,177.523
0.554176,0.0719722,0.133991,177.929
0.549781,0.0687494,0.132915,183.956
0.549617,0.066044,0.132834,184.484
0.555026,0.0639383,0.134061,185.786
0.5553,0.0612584,0.134085,187.341
0.554867,0.058509,0.133945,189.149
0.553799,0.0557071,0.133657,191.227
0.554035,0.0530318,0.133677,189.149
0.552674,0.0502237,0.133324,192.536
0.552543,0.0475263,0.13326,192.577
0.545339,0.0443142,0.131542,192.526
0.491811,0.0380055,0.118985,177.752
0.360897,0.0272927,0.0883292,182.019
0.289582,0.0213406,0.0716289,231.558
0.264241,0.018555,0.0656885,295.247
0.260525,0.0170766,0.0648078,343.188
0.257209,0.0156521,0.0640215,370.51
0.253681,0.0142515,0.0631867,395.102
0.252212,0.0129568,0.062834,412.508
0.251612,0.0117026,0.0626849,431.6
0.250337,0.0104375,0.062379,460.449
0.252571,0.0092566,0.0628937,473.501
0.254161,0.00804454,0.0632584,495.855
0.253548,0.00679351,0.063109,498.318
0.253382,0.00555128,0.0630649,471.212
0.252202,0.00430944,0.0627845,437.843
0.253895,0.00306903,0.0631759,407.396
0.254721,0.00181964,0.0633653,369.575
0.255309,0.000565478,0.0634998,327.635
0.259299,-0.00075493,0.0644292,273.56
0.258777,-0.00201159,0.0643058,227.9
0.267049,-0.00350416,0.0662364,174.245
0.274672,-0.00505511,0.0680161,140.972
0.289805,-0.00695665,0.07155,94.6667
0.316034,-0.00946626,0.0776754,81.423
0.353171,-0.0127346,0.086349,81.423
0.441201,-0.0189697,0.106908,81.423
0.519063,-0.0254779,0.125095,91.4343
0.535449,-0.02899,0.128929,112.085
0.535879,-0.0316123,0.129039,160.828
0.538467,-0.0343916,0.129654,182.501
0.538908,-0.0370352,0.129769,184.883
0.539682,-0.0397108,0.129964,187.188
0.545345,-0.04281,0.131302,185.533
0.546819,-0.0455894,0.131663,185.533
0.544891,-0.0480629,0.13123,185.533
0.543781,-0.0506006,0.13099,187.76
0.543299,-0.0531946,0.130898,188.755
0.542588,-0.0557607,0.130754,191.291
0.543347,-0.0584888,0.130954,190.935
0.544747,-0.0613021,0.131306,188.943
0.544441,-0.0639203,0.131261,186.871
0.545151,-0.0666679,0.131454,184.474
0.544821,-0.0692859,0.131406,190.365
0.546235,-0.0721435,0.131767,187.887
0.54878,-0.0751783,0.132395,187.887
0.550168,-0.0780695,0.132753,187.218
0.549311,-0.0806344,0.132587,187.025
0.548917,-0.0832664,0.13253,186.804
0.548366,-0.0858717,0.132439,186.804
0.547948,-0.0884966,0.132379,186.875
0.54744,-0.0911045,0.1323,186.875
0.548661,-0.094016,0.132627,187.162
0.550661,-0.0970837,0.13314,182.215
0.550192,-0.0997138,0.133074,180.523
0.548296,-0.102069,0.132674,182.215
0.547805,-0.104685,0.132605,182.955
0.547843,-0.107405,0.132662,184.518
0.54974,-0.110513,0.133157,178.609
0.546893,-0.112641,0.132538,177.302
0.547412,-0.115472,0.132712,179.019
0.545575,-0.117791,0.132332,179.834
0.547527,-0.120951,0.132846,181.243
0.546952,-0.123551,0.132767,181.273
0.547196,-0.126342,0.132881,181.273
0.546598,-0.128937,0.132798,181.273
0.549006,-0.132268,0.133426,186.844
0.549626,-0.135178,0.133633,188.017
0.545352,-0.136849,0.132686,187.126
0.547592,-0.140178,0.133278,184.156
0.546277,-0.14259,0.133032,183.054
0.546652,-0.14545,0.133187,182.887
0.546578,-0.148195,0.133236,182.841
0.547811,-0.15131,0.133596,182.02
0.546686,-0.153768,0.133399,178.852
0.546387,-0.15646,0.133399,178.814
0.546545,-0.159289,0.133508,178.814
0.545994,-0.16191,0.133451,178.814
0.546145,-0.164746,0.133561,180.538
0.548279,-0.168203,0.134143,181.864
0.547501,-0.170768,0.134035,178.133
0.547005,-0.173421,0.133996,178.133
0.547177,-0.176291,0.134116,178.867
0.546365,-0.178843,0.134003,179.526
0.544713,-0.181109,0.133691,182.05
0.547183,-0.184769,0.134362,183.174
0.551314,-0.189036,0.135431,185.549
0.547561,-0.19058,0.134621,181.87
0.546691,-0.193118,0.134499,181.023
0.545202,-0.195429,0.134231,181.023
0.54665,-0.198808,0.134665,182.227
0.543494,-0.200494,0.133999,187.493
0.542525,-0.202978,0.133857,188.864
0.541667,-0.2055,0.133742,190.537
0.542188,-0.208554,0.133959,191.471
0.5421,-0.21138,0.134031,191.471
0.54107,-0.213836,0.133878,191.471
0.539749,-0.216169,0.133656,190.253
0.538779,-0.218638,0.133518,185.366
0.539931,-0.221981,0.133892,185.366
0.53894,-0.224443,0.133751,185.776
0.538629,-0.22719,0.133775,184.504
0.537617,-0.229639,0.133631,183.361
0.53717,-0.232329,0.133624,184.504
0.536612,-0.234971,0.13359,189.153
0.535888,-0.237539,0.133518,191.155
0.537263,-0.241053,0.133953,195.109
0.536666,-0.243688,0.133913,192.043
0.537817,-0.24713,0.134298,192.382
0.537253,-0.24979,0.134267,189.884
0.538978,-0.253531,0.134793,189.035
0.53787,-0.255944,0.134633,183.349
0.536755,-0.258348,0.134471,183.349
0.537772,-0.261788,0.134828,182.612
0.540301,-0.265994,0.135555,180.772
0.539149,-0.268394,0.135387,179.72
0.536823,-0.270196,0.134932,178.448
0.535659,-0.272572,0.134762,180.016
0.534742,-0.275069,0.134652,191.148
0.534938,-0.278144,0.134814,192.891
0.533632,-0.280436,0.13461,192.891
0.534654,-0.28396,0.134977,196.045
0.534408,-0.28682,0.135034,196.045
0.53481,-0.290037,0.13525,196.045
0.534374,-0.292804,0.135262,189.401
0.537436,-0.297515,0.136135,177.74
0.564399,0.334245,0.142472,195.764
0.559479,0.328174,0.141119,202.334
0.556245,0.323123,0.140182,210.175
0.556149,0.319881,0.140015,210.175
0.555272,0.316213,0.139658,209.775
0.556253,0.313585,0.139756,218.755
0.55579,0.310168,0.139503,205.149
0.5545,0.306317,0.139048,211.386
0.554057,0.302939,0.138802,210.234
0.553384,0.299453,0.1385,204.702
0.552618,0.295934,0.138178,193.017
0.553267,0.293161,0.138199,189.521
0.553022,0.289932,0.138005,192.109
0.553899,0.28728,0.138083,192.109
0.553438,0.283957,0.137839,192.384
0.554223,0.281262,0.137896,184.582
0.555415,0.278766,0.138052,186.753
0.554563,0.275274,0.137716,186.753
0.554014,0.271943,0.137454,186.753
0.553048,0.268429,0.137093,191.96
0.551479,0.26465,0.136588,191.393
0.550773,0.261294,0.136292,190.752
0.553706,0.259615,0.136872,186.679
0.553813,0.256636,0.136773,185.488
0.553784,0.253601,0.136642,181.89
0.554874,0.251067,0.136781,185.553
0.555355,0.248263,0.136774,185.217
0.555998,0.24553,0.136807,187.919
0.553183,0.241329,0.136015,184.647
0.554782,0.239015,0.136278,184.135
0.555817,0.236457,0.136407,182.339
0.556855,0.233896,0.136538,188.387
0.562443,0.233165,0.137752,189.812
0.557957,0.228373,0.136569,195.632
0.562501,0.22718,0.137535,195.683
0.554125,0.22094,0.135433,195.561
0.56018,0.22031,0.136758,191.436
0.561142,0.217703,0.136875,191.436
0.558497,0.213751,0.136139,192.14
0.553422,0.208943,0.13483,192.14
0.554076,0.206264,0.134879,192.14
0.555241,0.203765,0.135049,189.648
0.555873,0.201073,0.135093,189.648
0.554223,0.197592,0.134601,193.878
0.553857,0.194571,0.134413,193.878
0.553405,0.191531,0.134206,196.549
0.551874,0.188144,0.133747,195.276
0.552702,0.185546,0.133844,195.593
0.549322,0.181599,0.132953,195.593
0.555427,0.180677,0.134291,198.418
0.550334,0.176231,0.133002,198.418
0.548357,0.172791,0.132445,195.974
0.547897,0.169831,0.132247,195.974
0.547978,0.16704,0.132176,195.848
0.548148,0.164279,0.132127,190.747
0.548874,0.161679,0.132209,190.747
0.553399,0.160138,0.13318,190.747
0.5528,0.157151,0.132954,191.707
0.552623,0.154288,0.132828,191.707
0.550196,0.150838,0.132179,192.274
0.557094,0.149833,0.133705,188.148
0.562105,0.148284,0.134791,187.785
0.553192,0.143221,0.132635,187.785
0.5512,0.139942,0.132094,187.785
0.551532,0.137242,0.132094,194.61
0.556949,0.135733,0.133278,189.371
0.557551,0.133072,0.133342,186.638
0.556871,0.130121,0.133111,186.638
0.557447,0.127457,0.133172,185.814
0.553478,0.123818,0.132181,190.147
0.552099,0.120763,0.131793,185.941
0.552652,0.118121,0.131853,183.974
0.551609,0.115159,0.131545,182.609
0.555044,0.113082,0.132275,182.184
0.553437,0.110019,0.131839,182.184
0.556539,0.107845,0.132494,180.904
0.556866,0.105145,0.132508,180.904
0.557479,0.102496,0.132589,181.498
0.557781,0.0997906,0.1326,182.727
0.55034,0.0958075,0.130825,182.727
0.549855,0.0930146,0.130658,188.134
0.554937,0.0910942,0.131775,188.134
0.555336,0.0884228,0.131814,191.134
0.555723,0.0857486,0.131851,191.401
0.555248,0.0829522,0.131691,191.401
0.55649,0.0803965,0.131928,187.423
0.556841,0.0777145,0.13196,184.15
0.556783,0.0749802,0.1319,179.08
0.55513,0.0720554,0.131475,179.08
0.552067,0.0689848,0.130728,188.402
0.55436,0.0665442,0.131212,189.889
0.555625,0.0639739,0.131462,189.889
0.554921,0.0611925,0.131261,189.889
0.553868,0.0583863,0.130981,192.015
0.550799,0.0554058,0.13024,192.015
0.553048,0.0529224,0.130721,192.536
0.553271,0.0502516,0.130738,194.117
0.553446,0.0475766,0.130746,195.17
0.548002,0.0444905,0.129467,192.577
0.522653,0.040098,0.123628,191.922
0.414689,0.0307004,0.0988666,185.475
0.304226,0.0221932,0.0735442,206.488
0.268608,0.0187843,0.0653731,278.193
0.262323,0.0171594,0.0639223,326.284
0.257549,0.0156624,0.0628185,363.879
0.255235,0.0143089,0.0622787,394.844
0.253914,0.0130125,0.0619671,412.07
0.252528,0.0117273,0.0616413,433.253
0.25061,0.0104422,0.0611947,473.501
0.250639,0.00921556,0.0611939,495.855
0.251899,0.00800822,0.0614756,505.757
0.252887,0.00678608,0.0616955,515.434
0.252472,0.00554614,0.0615953,512.328
0.252649,0.00431109,0.0616311,484.431
0.252649,0.00307506,0.061627,451.371
0.253853,0.00182917,0.0618989,411.936
0.253841,0.000587623,0.0618934,380.359
0.257301,-0.000715622,0.0626823,347.896
0.257277,-0.00197334,0.0626753,318.85
0.259029,-0.00327951,0.063075,273.827
0.262907,-0.00467092,0.0639614,220.774
0.267261,-0.00611714,0.0649572,191.876
0.268525,-0.00747641,0.0652474,164.19
0.275495,-0.00911326,0.0668428,132.978
0.290481,-0.0112281,0.0702717,91.4343
0.322486,-0.0144408,0.0775932,91.4343
0.373137,-0.0190948,0.0891798,112.085
0.448026,-0.0258252,0.106312,112.085
0.509645,-0.0323393,0.120413,112.622
0.525822,-0.0360269,0.124124,137.653
0.535114,-0.03932,0.126262,165.427
0.53711,-0.0420846,0.126733,177.745
0.537587,-0.0447336,0.126858,177.892
0.543609,-0.0479122,0.128254,177.892
0.539143,-0.0501095,0.12725,186.751
0.538889,-0.0527035,0.127212,189.926
0.54204,-0.0556673,0.127954,193.249
0.542892,-0.058402,0.128172,193.587
0.542646,-0.0610167,0.12814,188.943
0.540313,-0.0633736,0.127631,188.943
0.539998,-0.0659684,0.127585,189.856
0.53967,-0.0685607,0.127538,191.559
0.546773,-0.0721756,0.129196,190.878
0.546467,-0.0748049,0.129156,190.365
0.551626,-0.0782394,0.130372,189.309
0.551242,-0.0808822,0.130318,187.218
0.549507,-0.0833115,0.129955,186.804
0.547857,-0.0857404,0.129613,186.767
0.548225,-0.0884926,0.129735,186.723
0.548107,-0.0911676,0.129746,187.923
0.550762,-0.0943342,0.130397,188.041
0.551252,-0.0971366,0.130551,187.162
0.550783,-0.0997681,0.130487,182.486
0.549426,-0.102228,0.130219,182.486
0.547641,-0.104595,0.129854,182.936
0.548431,-0.107464,0.130083,184.518
0.549067,-0.110313,0.130277,184.518
0.54748,-0.112703,0.129961,184.518
0.547999,-0.115535,0.130132,179.596
0.546391,-0.117907,0.129813,181.307
0.548114,-0.121017,0.130263,181.307
0.547538,-0.123619,0.130185,181.527
0.546952,-0.126216,0.130106,182.119
0.540199,-0.127329,0.128603,185.828
0.548499,-0.132072,0.130578,187.076
0.550871,-0.135418,0.131186,188.017
0.550233,-0.138022,0.1311,187.126
0.548178,-0.140256,0.130687,184.477
0.545898,-0.142414,0.130222,183.14
0.546848,-0.145426,0.130506,183.14
0.545505,-0.147821,0.130261,183.14
0.544814,-0.15039,0.130167,184.266
0.545763,-0.153424,0.130455,182.041
0.548049,-0.156861,0.131055,179.685
0.547318,-0.159434,0.130956,179.685
0.546577,-0.162001,0.130855,181.864
0.546727,-0.164838,0.130963,182.931
0.549121,-0.168378,0.131594,182.931
0.54879,-0.171087,0.131592,182.023
0.548561,-0.173831,0.131615,178.867
0.547759,-0.17639,0.131506,178.133
0.548303,-0.179392,0.131712,178.867
0.547927,-0.182096,0.131704,179.526
0.548284,-0.185051,0.131869,183.174
0.551899,-0.189143,0.132795,186.433
0.545901,-0.1899,0.131478,186.433
0.545197,-0.192488,0.131397,185.691
0.544156,-0.194953,0.131239,181.87
0.544889,-0.198062,0.131497,185.691
0.544963,-0.20094,0.131601,187.846
0.544052,-0.203453,0.131476,187.846
0.542239,-0.205617,0.13114,187.846
0.540615,-0.207842,0.130849,190.256
0.541289,-0.210957,0.131098,191.237
0.54055,-0.213524,0.131016,190.588
0.539778,-0.216075,0.130927,190.253
0.539347,-0.218763,0.13092,185.09
0.539136,-0.221544,0.130965,185.09
0.536469,-0.223299,0.130432,184.784
0.535827,-0.225892,0.130377,183.361
0.535113,-0.228453,0.130305,183.361
0.535871,-0.231652,0.130582,189.153
0.535091,-0.234189,0.130497,192.939
0.536298,-0.237609,0.130883,194.662
0.53705,-0.240843,0.131162,194.662
0.535988,-0.243263,0.131013,194.662
0.537631,-0.246928,0.131506,192.382
0.535639,-0.248919,0.131137,189.035
0.536304,-0.25215,0.1314,182.077
0.537277,-0.255541,0.131737,180.759
0.537063,-0.258377,0.131793,180.759
0.53833,-0.26194,0.132203,180.772
0.539194,-0.265324,0.132518,181.182
0.539405,-0.268399,0.132678,180.772
0.537636,-0.270483,0.132366,179.72
0.535928,-0.272585,0.132069,180.016
0.534754,-0.274951,0.1319,185.361
0.533997,-0.277528,0.131831,185.361
0.534126,-0.28057,0.131975,191.736
0.53468,-0.283847,0.132222,195.783
0.533921,-0.28643,0.132155,195.783
0.533983,-0.289458,0.132285,188.669
0.533131,-0.291992,0.132196,183.564
0.533874,-0.295408,0.132492,191.922
0.558377,0.330628,0.138081,200.689
0.559969,0.328325,0.13832,207.148
0.558145,0.324074,0.13774,211.07
0.558142,0.320873,0.137598,216.792
0.555834,0.316399,0.136906,213.454
0.55669,0.313701,0.136972,218.484
0.556636,0.310504,0.13682,205.149
0.555064,0.306497,0.136308,208.648
0.554977,0.303308,0.136151,207.542
0.553961,0.299636,0.135773,203.161
0.5533,0.296169,0.135482,195.255
0.554426,0.29364,0.135616,190.823
0.552648,0.289621,0.135061,190.823
0.553541,0.286981,0.135142,189.521
0.553591,0.283916,0.135023,190.269
0.552656,0.28037,0.134672,183.048
0.553953,0.277934,0.13485,190.269
0.552769,0.274291,0.134442,186.753
0.553936,0.271792,0.134591,186.425
0.55236,0.267991,0.134093,186.425
0.55296,0.265231,0.13411,188.301
0.554151,0.262744,0.134266,190.752
0.554278,0.259766,0.134172,186.679
0.554386,0.256785,0.134075,181.89
0.552636,0.252981,0.133543,181.89
0.554232,0.250677,0.133798,191.637
0.554804,0.247916,0.133812,191.637
0.556383,0.24559,0.134063,185.217
0.555706,0.242295,0.133787,184.647
0.552823,0.238091,0.132997,184.135
0.553626,0.235448,0.13307,184.647
0.557435,0.234031,0.133843,188.748
0.555659,0.230329,0.133316,188.748
0.552299,0.226022,0.132422,189.812
0.551734,0.222854,0.13218,195.802
0.552158,0.220082,0.132169,196.62
0.553666,0.217725,0.132411,195.802
0.553407,0.214693,0.132243,195.561
0.54989,0.210459,0.131321,194.508
0.550811,0.207894,0.13143,193.569
0.553024,0.205792,0.131838,193.569
0.553926,0.203207,0.131944,193.569
0.554358,0.200452,0.131941,193.878
0.549976,0.196037,0.130829,194.197
0.550838,0.193457,0.130929,195.276
0.551394,0.190771,0.130959,196.549
0.554666,0.188981,0.131615,195.702
0.555498,0.186371,0.13171,196.549
0.555819,0.183594,0.131689,198.24
0.551892,0.179483,0.130692,200.364
0.550225,0.176118,0.130217,200.364
0.548934,0.172889,0.129829,203.218
0.548474,0.169927,0.129634,203.951
0.549225,0.167331,0.129718,201.103
0.548725,0.164371,0.129516,197.467
0.549273,0.161719,0.129556,193.318
0.550823,0.159346,0.129825,191.282
0.551529,0.156731,0.129903,191.707
0.552223,0.15411,0.129979,191.282
0.550659,0.150892,0.12954,190.707
0.557681,0.149917,0.131062,186.548
0.56261,0.148344,0.132105,186.548
0.558999,0.144601,0.131203,190.75
0.553829,0.140519,0.129949,193.09
0.551004,0.137053,0.12923,199.055
0.551436,0.134381,0.129254,194.61
0.55332,0.132042,0.12961,192.926
0.556194,0.12991,0.130191,192.926
0.55677,0.12725,0.130251,186.638
0.553682,0.123804,0.129481,193.887
0.551848,0.120655,0.128997,188.893
0.553218,0.118183,0.129241,188.893
0.549678,0.114722,0.128374,186.592
0.552702,0.112575,0.128995,191.279
0.551254,0.109555,0.128604,194.103
0.551738,0.10691,0.128653,191.784
0.55201,0.104225,0.128654,187.147
0.558069,0.102552,0.129965,183.539
0.554142,0.099127,0.12902,183.17
0.550016,0.0957105,0.128032,183.17
0.550437,0.0930656,0.128072,186.025
0.555524,0.0911442,0.129167,188.134
0.555924,0.0884713,0.129205,189.561
0.555461,0.0856719,0.129049,191.134
0.555836,0.0829977,0.129084,189.561
0.556198,0.0803209,0.129117,187.709
0.557034,0.0777052,0.129258,187.709
0.556158,0.0748681,0.129015,187.541
0.555717,0.0720948,0.128872,187.541
0.551456,0.0688833,0.12787,192.342
0.554946,0.0665806,0.128614,192.342
0.555233,0.0639042,0.128638,190.924
0.554134,0.0610859,0.128352,189.889
0.544829,0.057483,0.126224,195.735
0.545101,0.0548561,0.12625,198.961
0.554281,0.0530081,0.128277,196.975
0.554505,0.0503328,0.128294,196.975
0.554032,0.0476027,0.128155,196.975
0.549391,0.0445741,0.127083,195.523
0.546182,0.0416894,0.126335,195.491
0.47351,0.0344249,0.110011,187.457
0.34371,0.0245039,0.080888,195.491
0.279589,0.0193703,0.0664999,242.212
0.268916,0.017478,0.0640958,307.029
0.261148,0.0158173,0.0623442,345.054
0.258016,0.0144149,0.0616325,376.869
0.255554,0.0130662,0.0610718,410.426
0.253187,0.0117443,0.0605331,441.177
0.251736,0.0104685,0.0602002,479.697
0.251764,0.00923712,0.0601994,496.782
0.252169,0.00801163,0.0602835,519.848
0.253157,0.00678884,0.0604988,523.367
0.253397,0.00555224,0.0605472,529.955
0.253403,0.00431317,0.0605438,514.544
0.253402,0.00307418,0.0605396,484.431
0.253168,0.00183717,0.0604838,451.371
0.253156,0.000599542,0.0604784,414.274
0.254095,-0.000654907,0.0606864,389.664
0.257015,-0.00196307,0.0613381,356.181
0.257523,-0.00323331,0.0614509,328.715
0.25927,-0.00454835,0.0618418,298.648
0.262262,-0.00592617,0.0625115,269.146
0.262639,-0.00722388,0.0625971,247.588
0.262585,-0.00850542,0.0625867,224.6
0.263589,-0.00984094,0.0628136,208.65
0.265149,-0.0112176,0.063166,171.771
0.275553,-0.0131474,0.0654981,149.254
0.289303,-0.0153967,0.0685803,112.622
0.310679,-0.0183148,0.0733705,112.622
0.352434,-0.0229702,0.0827243,137.653
0.415403,-0.0297228,0.0968306,137.653
0.467975,-0.0361988,0.108613,130.427
0.498325,-0.04119,0.115423,130.427
0.515776,-0.0452568,0.119347,149.954
0.526307,-0.0488064,0.121723,167.391
0.532812,-0.0520402,0.123199,185.504
0.533087,-0.0546605,0.123281,192.513
0.537022,-0.0577008,0.124185,192.513
0.53911,-0.0605622,0.124676,184.93
0.53643,-0.0628581,0.1241,184.93
0.538492,-0.0657374,0.124588,185.367
0.534426,-0.0678245,0.123704,191.428
0.538058,-0.0709342,0.124547,191.428
0.545348,-0.0746027,0.126212,191.428
0.549303,-0.0778527,0.127132,189.744
0.548921,-0.0804832,0.127079,189.309
0.548527,-0.0831107,0.127025,186.657
0.547228,-0.0855904,0.126768,185.178
0.548016,-0.0884084,0.126982,185.532
0.547415,-0.0909981,0.126885,188.041
0.547971,-0.0937892,0.127049,188.621
0.548937,-0.0966632,0.127308,188.621
0.54847,-0.0992825,0.127245,187.162
0.550004,-0.102283,0.127633,184.359
0.549512,-0.104904,0.127567,182.955
0.549008,-0.107522,0.127499,187.562
0.550623,-0.110574,0.127911,185.639
0.547815,-0.112713,0.127326,185.639
0.549553,-0.115808,0.127768,184.88
0.546725,-0.117917,0.127181,185.352
0.548991,-0.12115,0.127744,185.352
0.549394,-0.123981,0.127888,185.352
0.547827,-0.126355,0.127589,184.742
0.544117,-0.128203,0.126807,185.828
0.546386,-0.131484,0.127376,186.844
0.551685,-0.13555,0.128633,187.076
0.551045,-0.138157,0.128548,187.126
0.550308,-0.140737,0.128442,185.017
0.54647,-0.142491,0.127635,184.477
0.545801,-0.145068,0.127547,185.017
0.54249,-0.146915,0.12686,188.356
0.540886,-0.149212,0.126561,188.356
0.542652,-0.152458,0.127027,186.546
0.54808,-0.156789,0.128328,184.851
0.547853,-0.15951,0.128345,184.851
0.548015,-0.16235,0.128452,184.682
0.550464,-0.165895,0.129081,182.931
0.550358,-0.168676,0.129129,182.931
0.548949,-0.171051,0.128883,182.931
0.548158,-0.173614,0.128777,182.244
0.547357,-0.17617,0.128671,179.526
0.547247,-0.178953,0.128723,179.526
0.549227,-0.182441,0.129253,179.526
0.548855,-0.185153,0.129248,182.921
0.547541,-0.187541,0.129028,186.433
0.545391,-0.189627,0.128618,187.024
0.5456,-0.192536,0.128748,186.433
0.544885,-0.19512,0.128667,183.924
0.546849,-0.198683,0.129202,184.01
0.545528,-0.201052,0.128985,187.846
0.543722,-0.203229,0.128657,187.846
0.542499,-0.205617,0.128464,184.295
0.541175,-0.207958,0.128248,188.311
0.540235,-0.210442,0.128121,190.256
0.540688,-0.213475,0.128315,190.256
0.539727,-0.21595,0.128184,183.447
0.539146,-0.218576,0.128142,183.447
0.538011,-0.220973,0.127973,185.09
0.53665,-0.223269,0.127753,184.068
0.53579,-0.225769,0.127649,183.361
0.535056,-0.22832,0.127574,183.361
0.534646,-0.231011,0.127575,189.153
0.534461,-0.233802,0.127629,189.153
0.536848,-0.237742,0.12828,189.153
0.536543,-0.240502,0.128309,187.827
0.535481,-0.242919,0.128162,192.043
0.536688,-0.246379,0.128543,192.043
0.535168,-0.248584,0.128292,188.967
0.534995,-0.251416,0.128354,182.077
0.534635,-0.254163,0.128374,180.759
0.536304,-0.257892,0.128867,180.759
0.538378,-0.261844,0.129456,188.153
0.537903,-0.264567,0.129452,189.059
0.536755,-0.266955,0.129291,186.1
0.53581,-0.26944,0.129178,186.1
0.534646,-0.271809,0.129014,185.361
0.533474,-0.274168,0.128849,185.361
0.534112,-0.277465,0.129109,185.094
0.533345,-0.280035,0.129039,185.094
0.535218,-0.284008,0.129591,188.669
0.534459,-0.286594,0.129525,194.716
0.534519,-0.289623,0.129652,188.669
0.533289,-0.291952,0.129476,185.579
0.525754,-0.290779,0.127815,179.328
0.561731,0.33244,0.135959,194.294
0.560289,0.328381,0.135479,202.334
0.558697,0.324261,0.134966,209.775
0.558347,0.320863,0.134745,218.484
0.556385,0.316581,0.134148,209.775
0.557243,0.313882,0.134213,208.648
0.55433,0.309125,0.133396,208.648
0.554252,0.305938,0.133244,208.752
0.554054,0.302694,0.133064,210.426
0.554501,0.299801,0.133035,208.752
0.551588,0.295156,0.132226,201.879
0.55197,0.292253,0.132184,195.255
0.551188,0.288758,0.131873,193.017
0.553064,0.286624,0.13218,186.975
0.552013,0.283011,0.131808,186.044
0.553211,0.280531,0.131959,182.241
0.552193,0.27696,0.131597,186.044
0.55254,0.274068,0.131552,188.481
0.553153,0.271306,0.131569,186.425
0.552581,0.267985,0.131313,186.425
0.553519,0.265382,0.131407,188.301
0.554654,0.262868,0.131547,190.115
0.551607,0.258439,0.130725,189.344
0.551395,0.255329,0.130557,192.442
0.552492,0.252811,0.13069,191.637
0.554137,0.25053,0.13095,191.809
0.555218,0.247992,0.13108,191.809
0.555507,0.24511,0.13103,192.68
0.556271,0.242432,0.13109,185.507
0.556563,0.239556,0.131042,184.135
0.554419,0.235676,0.130439,185.507
0.55863,0.234419,0.131287,188.818
0.55461,0.229808,0.130259,195.632
0.552837,0.226139,0.129746,195.742
0.553677,0.223521,0.129828,195.742
0.554652,0.220952,0.129942,198.34
0.557436,0.219071,0.130468,199.964
0.549521,0.213137,0.128565,199.964
0.550385,0.210552,0.128657,196.985
0.551307,0.207986,0.128763,196.985
0.553131,0.205741,0.129075,192.902
0.554495,0.20332,0.129282,192.143
0.554638,0.200463,0.129214,193.878
0.552637,0.19687,0.128663,196.419
0.552707,0.194008,0.128581,196.927
0.550868,0.190511,0.12807,197.564
0.549309,0.187131,0.127623,197.564
0.550134,0.184547,0.127715,198.452
0.55054,0.181826,0.127714,198.452
0.551268,0.179208,0.127786,200.913
0.548331,0.175454,0.127035,199.991
0.549069,0.172853,0.127112,203.951
0.548416,0.169834,0.126878,203.951
0.55035,0.167588,0.127225,201.103
0.549788,0.164605,0.127013,197.467
0.54861,0.161459,0.126665,200.146
0.551234,0.15939,0.127169,194.079
0.548918,0.155946,0.126569,192.274
0.553777,0.15446,0.127574,190.707
0.552021,0.151184,0.127101,188.148
0.556107,0.149442,0.127934,188.148
0.558923,0.147342,0.128484,190.75
0.554348,0.14338,0.127387,196.708
0.554984,0.140738,0.127453,197.463
0.555026,0.137952,0.127388,195.687
0.557391,0.135714,0.127841,188.947
0.556181,0.132638,0.1275,185.233
0.556769,0.129981,0.12756,193.887
0.551314,0.125999,0.126279,194.563
0.551873,0.123362,0.126335,194.563
0.550952,0.120414,0.126064,188.893
0.555723,0.118641,0.127057,187.024
0.552764,0.115285,0.126337,186.847
0.553746,0.112728,0.126492,191.279
0.553772,0.109983,0.126436,191.82
0.554276,0.10733,0.126487,187.378
0.553759,0.104493,0.126314,187.147
0.55422,0.101834,0.126358,187.187
0.55162,0.0986547,0.125727,191.798
0.550586,0.095762,0.125443,191.798
0.551007,0.0931157,0.125482,188.863
0.554471,0.0909405,0.126195,188.976
0.55487,0.0882739,0.126232,191.134
0.552603,0.0852185,0.125681,193.403
0.548516,0.0819321,0.124732,193.562
0.548014,0.0791747,0.124574,193.562
0.552637,0.0770958,0.125547,197.611
0.554395,0.0746134,0.12589,192.903
0.553296,0.0717702,0.125604,193.411
0.551466,0.068855,0.125159,199.083
0.551764,0.066197,0.125184,199.191
0.551863,0.0635173,0.125167,193.311
0.552136,0.0608565,0.125189,193.311
0.544532,0.0574302,0.123481,195.735
0.544776,0.0548034,0.1235,198.961
0.545899,0.052253,0.123713,199.408
0.549209,0.0498745,0.124407,204.855
0.549763,0.0472511,0.124498,202.275
0.54996,0.0445981,0.124511,199.702
0.549709,0.041914,0.124427,198.213
0.520141,0.0373725,0.117913,191.922
0.41386,0.028613,0.094577,191.585
